ply
format ascii 1.0
element vertex 1278
property float x
property float y
property float z
property uchar red
property uchar green
property uchar blue
end_header
-0.582827 0.272250 0.354346 76 0 153
-0.795574 0.226579 0.130208 76 0 153
0.583953 0.267615 -0.078491 153 76 0
0.546998 -0.484657 -0.189568 153 76 0
-0.278972 0.366016 0.287087 153 76 0
0.459466 -0.071007 -0.571948 153 76 0
0.579547 0.200470 -0.283955 153 76 0
-0.199480 -0.808591 0.277889 153 76 0
-0.055366 0.197089 -0.624868 153 76 0
0.213500 0.800307 0.197983 153 0 76
0.653712 0.501362 -0.318540 76 0 153
-0.884566 0.242117 0.268255 76 0 153
-0.844094 0.282066 0.098830 76 0 153
0.138166 0.568402 0.487835 153 0 76
-0.271947 0.573889 -0.400499 153 0 76
-0.116615 0.475150 -0.159737 153 76 0
-0.168537 -0.808592 -0.009845 153 76 0
0.458983 -0.042227 0.522813 153 76 0
-0.608237 0.369115 0.379822 76 0 153
-0.297147 0.065144 -0.579976 153 0 76
0.161391 0.202663 0.529575 153 0 76
-0.118559 0.859240 -0.097589 153 0 76
0.507701 0.240756 -0.349766 153 76 0
-0.301425 0.346794 -0.464310 153 0 76
0.110003 -0.808592 -0.240005 153 76 0
0.251536 0.315785 0.569897 153 0 76
0.170570 0.033029 0.577638 153 0 76
0.480333 -0.516138 -0.302523 153 76 0
0.328478 -0.801305 0.260323 153 76 0
0.258932 0.637684 0.393870 153 0 76
0.394271 -0.066093 -0.612827 153 76 0
-0.723421 0.469691 0.461986 76 0 153
0.449540 0.144148 -0.508548 153 76 0
0.447018 0.224584 -0.439519 153 76 0
-0.053663 -0.691266 0.421430 153 76 0
0.713757 0.031743 -0.077088 153 76 0
0.200460 0.138129 0.510884 153 0 76
-0.227368 -0.808592 -0.255091 153 76 0
-0.116916 0.363999 0.394375 153 76 0
0.737784 0.574338 -0.261201 76 0 153
-0.322011 -0.610188 -0.356307 153 76 0
-0.862875 0.247445 0.135519 76 0 153
0.144901 0.690664 0.397924 153 0 76
0.786206 0.441943 -0.354949 76 0 153
0.071411 -0.475590 0.515525 153 76 0
-0.473047 0.121978 0.380550 153 76 0
-0.029360 -0.808592 -0.112222 153 76 0
0.255120 0.051784 0.489768 153 0 76
0.208746 0.539018 0.493066 153 0 76
-0.607386 0.048787 0.182087 153 76 0
-0.639119 0.404321 0.150416 76 0 153
0.629752 0.210844 -0.003652 153 76 0
-0.282198 -0.555322 0.375248 153 76 0
-0.394845 -0.735254 0.066144 153 76 0
0.250089 0.241451 0.474195 153 0 76
-0.111323 -0.687173 -0.457679 153 76 0
-0.177804 -0.791701 0.345640 153 76 0
-0.537596 0.206144 0.117632 76 0 153
-0.495983 0.040943 -0.449946 153 76 0
-0.105242 0.202319 -0.563699 153 0 76
0.273333 -0.800017 0.318826 153 76 0
-0.145609 -0.073670 -0.689340 153 76 0
0.261695 -0.808592 0.046541 153 76 0
0.312989 -0.808592 0.057281 153 76 0
0.723423 -0.068380 -0.069869 153 76 0
0.399503 -0.238237 -0.562301 153 76 0
0.328418 -0.639360 0.351408 153 76 0
-0.652602 -0.028658 0.000788 153 76 0
0.258093 0.541659 0.469889 153 0 76
0.643110 0.442561 -0.053952 76 0 153
-0.496199 0.284412 0.047482 153 76 0
0.200739 0.457856 0.182708 153 76 0
-0.017579 -0.574133 -0.524755 153 76 0
0.277200 0.416925 -0.292181 153 76 0
0.203952 -0.808592 -0.322990 153 76 0
-0.609528 -0.182050 0.154619 153 76 0
-0.170263 0.663309 -0.273317 153 0 76
-0.755726 0.369841 0.057031 76 0 153
0.301093 0.191058 0.471067 153 0 76
-0.141936 0.319092 -0.502773 153 0 76
-0.318163 0.295693 -0.412537 153 76 0
0.534647 0.199638 -0.226240 76 0 153
-0.172725 0.591764 -0.471797 153 0 76
-0.234639 0.386136 -0.444023 153 0 76
0.614174 0.075836 -0.353947 153 76 0
-0.502403 0.273185 -0.122566 153 76 0
0.446382 0.330848 -0.126806 76 0 153
-0.388712 -0.315375 -0.465588 153 76 0
-0.135352 0.203507 -0.599885 153 76 0
0.727849 0.483139 -0.131834 76 0 153
-0.055134 0.223615 0.555394 153 76 0
-0.595126 0.392945 0.350124 76 0 153
-0.518257 0.251912 0.085990 153 76 0
0.677236 0.027841 -0.253708 153 76 0
0.523174 -0.341920 0.327310 153 76 0
0.311149 0.433895 -0.198666 153 76 0
-0.128006 0.390281 -0.398948 153 76 0
0.532987 -0.004481 -0.496262 153 76 0
-0.219875 0.635268 -0.409072 153 0 76
0.215978 0.330245 0.429346 153 76 0
0.146897 0.385984 -0.423205 153 76 0
-0.218477 0.046066 -0.512220 153 0 76
-0.332196 0.368999 0.214653 153 76 0
0.773243 0.243377 -0.238279 76 0 153
0.010042 0.466342 -0.262281 153 76 0
-0.778061 0.335265 0.460232 76 0 153
-0.787480 0.201848 0.163110 76 0 153
-0.356552 -0.761766 -0.209954 153 76 0
0.438738 -0.668207 -0.253318 153 76 0
0.528695 -0.125175 0.447119 153 76 0
0.732536 0.254461 -0.135953 76 0 153
0.458873 0.378481 -0.062877 153 76 0
0.250551 0.470631 -0.082570 153 76 0
-0.569757 0.439994 0.340662 76 0 153
0.000554 0.389010 -0.432958 153 76 0
0.797901 0.347393 -0.257380 76 0 153
0.505428 -0.410385 0.297010 153 76 0
-0.277504 0.202369 0.487537 153 76 0
0.096502 0.633685 0.443852 153 0 76
-0.043396 0.862354 0.122131 153 0 76
-0.466888 -0.535261 -0.147381 153 76 0
0.636673 -0.197708 0.260807 153 76 0
-0.111951 -0.151822 0.637074 153 76 0
0.204483 0.423467 -0.329238 153 76 0
-0.124073 0.003689 -0.690780 153 76 0
0.143005 -0.364750 0.555322 153 76 0
-0.586074 0.378065 0.200223 76 0 153
-0.228502 -0.213815 -0.631695 153 76 0
-0.344262 0.225259 0.421227 153 76 0
0.550224 -0.511852 0.084460 153 76 0
0.752360 0.301839 -0.092524 76 0 153
-0.016711 -0.679237 -0.482694 153 76 0
-0.416456 -0.130145 0.488337 153 76 0
-0.007192 -0.808592 -0.019573 153 76 0
-0.836382 0.284324 0.137791 76 0 153
0.563179 -0.506967 -0.017268 153 76 0
0.426474 -0.463637 0.355591 153 76 0
0.099897 -0.808299 -0.405663 153 76 0
0.490352 -0.383307 -0.388239 153 76 0
0.100261 0.870924 0.127454 153 0 76
0.612352 -0.386244 -0.097973 153 76 0
0.328308 0.442200 -0.114955 153 76 0
-0.373352 -0.762976 -0.170381 153 76 0
0.067352 -0.344803 0.572420 153 76 0
-0.102923 -0.351885 -0.603480 153 76 0
0.857702 0.512663 -0.297867 76 0 153
0.166495 -0.114436 -0.698656 153 76 0
0.012953 0.784110 0.099705 153 0 76
0.584734 0.143691 -0.344338 153 76 0
0.496198 0.167201 0.394208 153 76 0
-0.517198 -0.024299 -0.440803 153 76 0
-0.200014 0.727533 -0.220992 153 0 76
-0.411425 -0.505937 0.258325 153 76 0
-0.629784 -0.164769 0.100164 153 76 0
-0.805918 0.476996 0.102262 76 0 153
0.214514 0.698972 0.222031 153 0 76
-0.555620 0.107582 -0.307536 153 76 0
0.690140 -0.174855 0.123663 153 76 0
0.140666 -0.808592 -0.095302 153 76 0
-0.189806 -0.238335 0.584774 153 76 0
-0.755867 0.586837 0.171501 76 0 153
-0.582578 0.396711 0.390863 76 0 153
0.593588 -0.427680 -0.095043 153 76 0
-0.444989 0.286915 -0.256967 153 76 0
-0.866870 0.243821 0.346919 76 0 153
-0.255474 0.236382 -0.521433 153 76 0
0.353190 -0.008074 0.583558 153 76 0
-0.013188 -0.184829 0.643681 153 76 0
0.499551 0.287925 -0.077523 76 0 153
-0.576729 0.483184 0.254673 76 0 153
0.187715 0.583056 0.471116 153 0 76
-0.064386 -0.267875 -0.653425 153 76 0
0.609734 0.111434 -0.333765 153 76 0
-0.826653 0.181252 0.220943 76 0 153
0.146763 -0.171121 0.641160 153 76 0
0.148535 0.159512 0.606135 153 0 76
0.739116 0.227499 -0.259216 76 0 153
0.673684 0.085118 0.153207 153 76 0
-0.690561 0.603272 0.217131 76 0 153
-0.430684 -0.617379 0.106216 153 76 0
0.234678 0.725238 0.312747 153 0 76
0.670068 0.260846 -0.180993 76 0 153
0.771043 0.576767 -0.240774 76 0 153
0.039428 -0.808334 0.353501 153 76 0
0.592193 -0.354469 -0.235749 153 76 0
0.330303 -0.757663 0.291822 153 76 0
-0.167109 -0.808592 0.029595 153 76 0
-0.267539 -0.320208 0.503414 153 76 0
-0.426142 0.185016 0.378766 153 76 0
0.581390 0.064762 0.368746 153 76 0
-0.475613 0.091719 -0.448160 153 76 0
0.195711 -0.808592 -0.043613 153 76 0
-0.067668 0.811181 0.014936 153 0 76
-0.166542 0.689854 -0.389959 153 0 76
-0.506229 0.230614 0.189172 153 76 0
-0.444229 0.019741 0.459700 153 76 0
-0.525607 -0.202317 0.328249 153 76 0
-0.586042 0.168139 0.037240 153 76 0
-0.210562 -0.710969 0.348527 153 76 0
0.133083 0.261282 -0.572979 153 76 0
-0.668845 0.544935 0.342164 76 0 153
0.536326 0.470633 -0.141412 76 0 153
0.075845 0.759500 0.137922 153 0 76
0.277476 0.429811 0.206136 153 76 0
0.048853 0.226033 -0.608737 153 76 0
-0.043241 0.789714 -0.058173 153 0 76
0.576766 0.000853 -0.449090 153 76 0
0.112752 0.865808 -0.091496 153 0 76
0.074566 -0.002281 -0.710170 153 76 0
0.151471 0.814536 0.011582 153 0 76
0.413748 -0.672185 -0.292308 153 76 0
-0.458556 -0.590335 0.021973 153 76 0
0.243303 0.462208 0.399088 153 0 76
-0.276401 -0.195004 -0.613480 153 76 0
0.346638 -0.399820 -0.507070 153 76 0
-0.271924 -0.124194 -0.637108 153 76 0
-0.376867 -0.373932 -0.439801 153 76 0
-0.788920 0.451127 0.059886 76 0 153
0.448251 0.372995 0.104826 153 76 0
0.097576 0.675531 0.280678 153 0 76
-0.689792 0.574724 0.270107 76 0 153
-0.609566 0.244075 0.355520 76 0 153
0.538835 0.088929 0.406323 153 76 0
0.041179 -0.281942 -0.651798 153 76 0
-0.397470 -0.118350 -0.560237 153 76 0
-0.719655 0.567293 0.197334 76 0 153
0.814062 0.388924 -0.181719 76 0 153
0.740364 0.398999 -0.355322 76 0 153
0.075823 0.850138 0.192013 153 0 76
-0.565046 -0.070943 0.312358 153 76 0
-0.561727 0.042721 -0.343154 153 76 0
-0.106398 -0.398537 -0.581032 153 76 0
-0.854156 0.187458 0.249721 76 0 153
0.405271 -0.354142 0.442543 153 76 0
0.060945 0.715507 0.245495 153 0 76
-0.498784 0.042015 0.396276 153 76 0
0.376451 -0.598635 -0.378653 153 76 0
-0.100415 0.486032 -0.078823 153 76 0
0.456164 -0.444138 0.336983 153 76 0
0.279016 -0.808592 0.150616 153 76 0
-0.250641 0.273981 -0.582286 153 0 76
-0.186439 -0.161159 0.614830 153 76 0
0.224755 0.030282 0.627223 153 76 0
0.556535 0.275608 -0.268740 76 0 153
-0.062132 0.481834 0.116912 153 76 0
-0.662228 0.445344 0.097640 76 0 153
-0.061280 0.740846 -0.368067 153 0 76
0.562688 -0.285055 0.311949 153 76 0
-0.492343 0.318257 0.205116 76 0 153
-0.560831 0.329013 0.185032 76 0 153
0.446810 0.296887 0.300691 153 76 0
-0.199706 0.025093 0.616549 153 76 0
0.171564 0.367224 0.573058 153 0 76
0.368592 0.213399 0.498387 153 0 76
0.525253 0.179543 -0.400834 153 76 0
-0.296973 -0.416273 0.436461 153 76 0
-0.027396 -0.718919 0.415101 153 76 0
-0.604923 -0.196959 -0.204055 153 76 0
0.308252 -0.401149 -0.528375 153 76 0
0.577121 0.175131 -0.143737 76 0 153
0.522167 0.311572 -0.168491 153 76 0
0.577125 0.255184 0.117607 153 76 0
0.518479 0.423296 -0.295296 76 0 153
-0.358146 -0.633976 0.247705 153 76 0
-0.130316 -0.765429 -0.425088 153 76 0
0.200022 0.682783 0.385760 153 0 76
0.676471 0.100609 0.117952 153 76 0
-0.140652 -0.162394 -0.676837 153 76 0
-0.492164 0.230277 0.251584 76 0 153
0.202304 0.785303 0.112942 153 0 76
-0.001173 0.891165 0.059807 153 0 76
0.214426 -0.390644 0.524264 153 76 0
-0.219357 0.685062 -0.268015 153 0 76
0.802660 0.474725 -0.151744 76 0 153
0.066110 0.343648 0.446091 153 76 0
0.393502 0.159729 0.491748 153 76 0
-0.166298 0.059819 -0.665948 153 76 0
-0.451900 -0.198612 -0.476742 153 76 0
0.625493 -0.078785 0.328776 153 76 0
0.419855 -0.295696 0.465514 153 76 0
-0.279172 -0.297003 -0.559106 153 76 0
-0.129580 0.712066 -0.384615 153 0 76
-0.244769 -0.504958 0.424279 153 76 0
0.536997 0.277685 0.182391 153 76 0
0.076124 0.042917 -0.701203 153 76 0
0.303573 0.382468 0.298261 153 76 0
-0.572366 0.293258 0.123748 76 0 153
-0.273504 -0.808586 -0.190689 153 76 0
0.358247 -0.632945 0.327548 153 76 0
-0.093422 0.445464 0.244356 153 76 0
0.717096 0.015670 -0.022586 153 76 0
0.548952 -0.542526 -0.002070 153 76 0
-0.004242 0.864779 -0.175388 153 0 76
-0.135694 0.288846 -0.611698 153 0 76
-0.113816 0.479786 -0.441960 153 0 76
0.723064 0.476723 -0.361023 76 0 153
-0.358992 -0.807271 -0.076892 153 76 0
-0.285918 0.007374 -0.629178 153 76 0
-0.691419 0.210176 0.251797 76 0 153
-0.210734 -0.808592 0.198618 153 76 0
-0.158153 0.124619 -0.534554 153 0 76
0.472150 -0.743571 -0.047879 153 76 0
-0.177245 0.340739 -0.477273 153 0 76
0.010256 0.482845 -0.187649 153 76 0
-0.047878 0.815521 -0.272186 153 0 76
-0.630694 0.009111 0.131445 153 76 0
0.017001 0.502043 -0.011662 153 76 0
-0.080604 -0.808592 0.167820 153 76 0
-0.371958 0.138324 -0.520983 153 76 0
-0.003215 0.495374 -0.085418 153 76 0
-0.899440 0.213143 0.238876 76 0 153
0.520456 0.240143 0.279536 153 76 0
-0.202495 0.187356 0.539644 153 76 0
0.071078 0.860165 -0.155804 153 0 76
0.394432 -0.590908 0.314866 153 76 0
0.130698 0.447842 -0.301492 153 76 0
-0.658902 0.544206 0.156229 76 0 153
0.016437 0.731307 0.297538 153 0 76
0.135243 0.819440 -0.027505 153 0 76
0.531837 0.232404 -0.133490 76 0 153
0.442319 -0.037060 -0.584069 153 76 0
0.711745 0.444574 -0.095718 76 0 153
0.379457 -0.808592 -0.083735 153 76 0
-0.601594 0.417007 0.425135 76 0 153
0.169363 0.571293 0.353695 153 0 76
-0.141334 0.174167 -0.538625 153 0 76
-0.004518 -0.808592 -0.376297 153 76 0
0.278494 -0.522643 -0.486852 153 76 0
-0.088466 -0.808592 0.207224 153 76 0
0.645806 -0.228513 0.211255 153 76 0
-0.463360 -0.076205 -0.500077 153 76 0
-0.540243 0.291168 0.171785 76 0 153
-0.583107 -0.016755 0.277810 153 76 0
-0.150162 0.123896 0.593834 153 76 0
-0.404414 0.166852 -0.465669 153 76 0
0.557181 -0.290769 -0.365750 153 76 0
-0.673017 0.228242 0.322926 76 0 153
0.113248 0.375681 0.532273 153 0 76
-0.628449 -0.200206 -0.062619 153 76 0
-0.315416 0.243163 -0.477839 153 76 0
0.684646 0.276618 -0.126692 76 0 153
-0.197196 0.041460 -0.580553 153 0 76
0.119218 0.878664 -0.032713 153 0 76
0.682632 -0.100149 0.211433 153 76 0
-0.637058 0.014885 -0.150912 153 76 0
-0.211412 0.335925 -0.582668 153 0 76
-0.271686 0.162589 -0.590990 153 0 76
0.135888 0.072631 0.638917 153 76 0
-0.321621 -0.048128 -0.614083 153 76 0
0.634191 -0.341643 -0.017860 153 76 0
0.050613 -0.084259 -0.713064 153 76 0
0.256476 0.202381 0.535599 153 76 0
0.598369 0.233387 -0.200187 76 0 153
0.429685 -0.806587 0.036420 153 76 0
0.060950 -0.808592 0.306324 153 76 0
-0.860666 0.228221 0.400822 76 0 153
-0.109267 -0.676359 0.413028 153 76 0
-0.624129 0.198862 0.151315 76 0 153
0.677484 -0.105245 -0.273528 153 76 0
-0.583670 0.212797 0.169557 76 0 153
-0.650625 -0.091593 0.052834 153 76 0
-0.612487 0.084893 -0.168836 153 76 0
0.091556 0.815520 0.256754 153 0 76
-0.458219 0.206954 0.196066 76 0 153
-0.154432 0.057314 0.620092 153 76 0
0.071296 -0.808592 -0.044689 153 76 0
-0.058507 0.488774 -0.108783 153 76 0
0.469638 0.315078 -0.230739 76 0 153
-0.596850 0.463722 0.313528 76 0 153
-0.154635 0.423504 -0.452396 153 0 76
-0.545861 0.252563 0.154300 76 0 153
-0.260084 -0.808592 -0.074644 153 76 0
0.717753 -0.088996 -0.129217 153 76 0
-0.397666 0.243174 -0.397967 153 76 0
0.230010 -0.808592 0.067304 153 76 0
0.206251 0.773418 0.269693 153 0 76
-0.705983 0.337602 0.111793 76 0 153
-0.546978 -0.345154 -0.160648 153 76 0
0.426913 0.002401 0.538668 153 76 0
0.768287 0.539482 -0.333525 76 0 153
-0.814251 0.270737 0.459269 76 0 153
-0.469592 -0.270775 -0.411940 153 76 0
-0.446244 0.060631 0.442745 153 76 0
0.008901 0.110998 -0.677061 153 76 0
0.333543 -0.231029 -0.603750 153 76 0
0.443089 0.077941 -0.554893 153 76 0
0.064102 0.788113 -0.195734 153 0 76
0.315590 0.186283 0.563844 153 0 76
-0.545822 0.318057 0.269883 76 0 153
0.546419 -0.489453 0.134495 153 76 0
0.472461 -0.742252 0.006381 153 76 0
-0.782183 0.329156 0.098696 76 0 153
-0.729300 0.426274 0.096527 76 0 153
0.661670 -0.173630 -0.277497 153 76 0
0.254452 0.518247 0.366897 153 0 76
0.715725 0.274403 -0.358478 76 0 153
0.656035 0.069909 0.232121 153 76 0
0.594344 -0.078194 -0.431851 153 76 0
-0.628765 0.511148 0.321677 76 0 153
-0.415878 -0.539393 -0.273905 153 76 0
-0.298394 0.449447 -0.438778 153 0 76
0.073309 -0.257729 -0.663363 153 76 0
-0.159106 0.330405 0.423972 153 76 0
-0.221599 0.237598 -0.540718 153 76 0
-0.800475 0.170752 0.247096 76 0 153
-0.198670 0.449046 -0.423366 153 0 76
0.575536 -0.304886 -0.321256 153 76 0
-0.249118 -0.645473 0.355321 153 76 0
-0.223667 0.322449 -0.448117 153 76 0
0.520855 0.499103 -0.247704 76 0 153
-0.053090 0.485598 -0.510724 153 0 76
0.536864 -0.323044 -0.370715 153 76 0
-0.640680 0.027559 0.073114 153 76 0
-0.014888 0.426906 -0.363446 153 76 0
-0.096248 0.464403 -0.231441 153 76 0
0.111689 -0.479714 -0.560478 153 76 0
-0.455320 -0.343131 0.321241 153 76 0
0.036519 -0.516106 0.499315 153 76 0
0.010929 0.419338 0.330723 153 76 0
-0.187924 -0.583316 -0.470897 153 76 0
0.118016 0.826222 -0.086420 153 0 76
0.402931 0.408185 -0.106806 153 76 0
0.347507 0.419401 0.145539 153 76 0
0.015850 0.808243 0.258015 153 0 76
0.186881 -0.059956 0.647647 153 76 0
-0.598265 0.436472 0.230553 76 0 153
0.039907 -0.421236 0.538789 153 76 0
0.039109 0.791614 -0.280876 153 0 76
0.084634 0.805022 -0.097082 153 0 76
0.207381 0.033029 0.567536 153 0 76
0.133767 0.413306 -0.379171 153 76 0
-0.422392 0.009310 -0.534360 153 76 0
0.843547 0.407244 -0.221035 76 0 153
0.487914 -0.193495 -0.513605 153 76 0
-0.159585 -0.233264 -0.645198 153 76 0
-0.257814 0.127602 0.549618 153 76 0
-0.005060 0.027286 -0.704640 153 76 0
-0.586194 -0.093841 0.273473 153 76 0
-0.015650 0.899253 -0.004860 153 0 76
0.315500 -0.521192 -0.466294 153 76 0
0.257342 -0.066404 0.628019 153 76 0
0.175647 -0.808592 0.139605 153 76 0
0.811316 0.371037 -0.290131 76 0 153
-0.262302 -0.409760 -0.510079 153 76 0
-0.504483 -0.478963 -0.065336 153 76 0
-0.174962 0.526342 -0.513162 153 0 76
-0.110007 0.349946 -0.465562 153 76 0
-0.690065 0.399154 0.077823 76 0 153
0.577512 -0.393267 -0.224451 153 76 0
-0.790264 0.238663 0.386383 76 0 153
0.308277 -0.808592 0.120813 153 76 0
-0.322916 0.388568 -0.224085 153 76 0
-0.639681 0.046857 0.013923 153 76 0
-0.649134 0.418213 0.422295 76 0 153
0.091826 -0.598854 -0.514892 153 76 0
-0.069965 0.837882 -0.222495 153 0 76
-0.297235 0.039807 -0.505964 153 0 76
0.718052 0.002109 0.054879 153 76 0
-0.823365 0.215480 0.403376 76 0 153
0.643468 0.111193 0.219726 153 76 0
0.688986 0.519482 -0.329983 76 0 153
0.298362 0.522004 0.367566 153 0 76
-0.168898 -0.786256 -0.399798 153 76 0
-0.643068 -0.150838 -0.075577 153 76 0
-0.043004 0.101069 -0.679984 153 76 0
0.316856 0.393544 0.423975 153 0 76
0.415478 -0.807186 0.071265 153 76 0
0.392445 -0.789089 -0.257925 153 76 0
-0.040576 0.548138 -0.488634 153 0 76
-0.479807 -0.368621 0.257051 153 76 0
-0.537753 0.107999 0.178459 76 0 153
0.313973 -0.790661 -0.345347 153 76 0
0.394499 0.405862 0.102196 153 76 0
-0.035715 0.802307 0.158302 153 0 76
0.307187 0.415487 -0.265948 153 76 0
-0.595575 -0.273448 -0.075030 153 76 0
-0.158188 0.377932 0.354134 153 76 0
-0.120895 0.410964 0.312454 153 76 0
0.690561 -0.100449 -0.229817 153 76 0
-0.514536 0.238764 0.304336 76 0 153
0.003790 -0.398730 -0.598399 153 76 0
0.142831 0.823618 0.224055 153 0 76
-0.024411 0.780114 -0.321104 153 0 76
-0.645317 0.336842 0.139646 76 0 153
-0.412316 -0.408407 0.332245 153 76 0
-0.014621 0.753525 -0.178367 153 0 76
-0.599008 0.500846 0.371555 76 0 153
-0.619461 0.352443 0.440105 76 0 153
0.131707 0.303507 0.483229 153 76 0
0.472621 0.367771 0.033062 153 76 0
-0.251365 -0.808592 0.143303 153 76 0
0.437315 -0.666041 0.207235 153 76 0
-0.346486 0.071921 0.525460 153 76 0
-0.130052 0.286212 0.482345 153 76 0
-0.651919 0.496282 0.172153 76 0 153
0.021458 -0.584979 0.471952 153 76 0
0.036911 0.790677 0.035965 153 0 76
0.627937 0.001608 -0.367177 153 76 0
0.044299 0.702834 0.371387 153 0 76
0.629919 0.337985 -0.102644 76 0 153
-0.289074 -0.783679 -0.304647 153 76 0
-0.146654 -0.808592 -0.318417 153 76 0
0.678380 0.332262 -0.395442 76 0 153
-0.555871 0.189532 0.177019 76 0 153
-0.472526 0.311550 -0.000449 153 76 0
-0.514472 0.109703 0.246088 76 0 153
-0.139162 0.443360 0.223630 153 76 0
0.681180 -0.227714 0.077974 153 76 0
-0.560175 -0.298870 0.143613 153 76 0
0.062257 0.256588 0.534239 153 76 0
-0.589278 0.163916 -0.021302 153 76 0
-0.557556 -0.054431 -0.376223 153 76 0
0.378951 -0.729557 0.251963 153 76 0
0.053917 0.763788 0.325583 153 0 76
0.260934 -0.083803 -0.676949 153 76 0
-0.279035 0.271525 0.424289 153 76 0
-0.286260 0.270644 -0.476868 153 0 76
-0.095449 0.674940 -0.274810 153 0 76
-0.673054 0.215071 0.287718 76 0 153
0.246994 0.309509 -0.490344 153 76 0
0.334488 0.440446 0.057334 153 76 0
0.108779 0.603150 0.465293 153 0 76
-0.712130 0.426471 0.458327 76 0 153
0.792127 0.312401 -0.150715 76 0 153
-0.748497 0.175747 0.254744 76 0 153
0.544324 -0.206382 -0.450182 153 76 0
-0.482535 -0.202515 -0.443383 153 76 0
-0.297825 -0.666048 -0.348981 153 76 0
-0.733155 0.391670 0.466285 76 0 153
0.401216 0.346449 0.269020 153 76 0
-0.505613 0.157764 0.214348 76 0 153
0.467905 -0.140384 -0.553652 153 76 0
-0.426358 -0.334715 0.364848 153 76 0
0.098784 0.460979 -0.273244 153 76 0
-0.548007 0.300773 0.330538 76 0 153
-0.805577 0.203811 0.284879 76 0 153
0.420840 0.373409 0.170856 153 76 0
-0.542054 -0.309459 -0.242255 153 76 0
-0.402604 0.276596 -0.348670 153 76 0
-0.286485 0.220645 -0.571224 153 0 76
-0.508041 -0.390807 0.175868 153 76 0
-0.549790 0.388947 0.211226 76 0 153
-0.130042 -0.008730 0.640525 153 76 0
0.592471 -0.284705 0.260159 153 76 0
0.689626 -0.038829 0.191673 153 76 0
-0.319698 0.178608 -0.500491 153 0 76
-0.129923 0.538167 -0.392531 153 0 76
-0.109861 -0.808592 0.313551 153 76 0
-0.119385 0.040790 -0.592549 153 0 76
0.285163 0.615497 0.312597 153 0 76
-0.076452 0.445267 -0.302722 153 76 0
-0.367336 0.392091 0.015108 153 76 0
0.245137 -0.312427 -0.602845 153 76 0
0.552465 0.294890 0.069280 153 76 0
-0.216956 -0.352000 -0.566139 153 76 0
-0.585031 0.409280 0.257233 76 0 153
0.178211 -0.769155 -0.432851 153 76 0
-0.037300 -0.393174 0.549408 153 76 0
0.218082 -0.332654 0.550222 153 76 0
-0.189995 -0.808592 -0.058563 153 76 0
0.180590 0.439261 0.433909 153 0 76
-0.312444 -0.714817 0.254803 153 76 0
0.188131 0.291969 0.489113 153 0 76
0.747006 0.372902 -0.075822 76 0 153
0.751202 0.329789 -0.329177 76 0 153
0.117288 0.344867 0.551553 153 0 76
-0.148639 0.043032 -0.634852 153 0 76
0.326078 -0.808592 -0.093754 153 76 0
0.736423 0.258966 -0.332629 76 0 153
0.269597 0.063317 0.605849 153 76 0
0.722462 0.231203 -0.294043 76 0 153
-0.228046 -0.003072 -0.661624 153 76 0
-0.396728 -0.185260 -0.539196 153 76 0
-0.386073 -0.462168 -0.376070 153 76 0
-0.147345 -0.808592 0.199195 153 76 0
0.171301 0.171685 0.580352 153 76 0
0.038589 0.692840 0.321564 153 0 76
-0.206444 0.580893 -0.463109 153 0 76
0.274569 0.164373 0.478881 153 0 76
-0.524120 0.224323 0.268128 76 0 153
-0.848085 0.314799 0.083247 76 0 153
-0.633419 -0.155745 -0.144378 153 76 0
0.006235 -0.219743 -0.680400 153 76 0
0.063330 0.618453 0.425873 153 0 76
0.702323 -0.077442 -0.193697 153 76 0
-0.633847 0.386127 0.457899 76 0 153
-0.058927 -0.231686 0.621127 153 76 0
0.482840 0.291356 -0.258147 76 0 153
0.306056 0.285759 0.434539 153 76 0
0.512202 0.466461 -0.219451 76 0 153
-0.910925 0.266028 0.228605 76 0 153
0.053577 0.053510 0.647905 153 76 0
-0.313863 -0.482399 0.386635 153 76 0
0.413427 -0.718552 0.208476 153 76 0
-0.454954 -0.454159 -0.275695 153 76 0
-0.184664 0.435000 0.212406 153 76 0
-0.551409 0.079342 -0.338115 153 76 0
-0.057408 0.313612 0.473218 153 76 0
0.640289 0.165388 0.125547 153 76 0
0.344793 0.311854 0.510884 153 0 76
0.550324 0.446970 -0.357984 76 0 153
0.377003 -0.532547 -0.414456 153 76 0
-0.650986 0.398994 0.107320 76 0 153
0.867416 0.483232 -0.249868 76 0 153
0.428031 -0.457434 -0.407905 153 76 0
0.200142 -0.002091 0.640081 153 76 0
0.549047 0.320584 -0.129770 76 0 153
0.695063 -0.039940 -0.220385 153 76 0
0.277123 0.285225 -0.501460 153 76 0
0.373851 -0.303536 -0.541702 153 76 0
0.071805 -0.808592 0.064226 153 76 0
0.444410 -0.788461 -0.141591 153 76 0
-0.691267 0.472924 0.435923 76 0 153
-0.592987 0.145688 -0.129972 153 76 0
0.695426 0.445402 -0.360165 76 0 153
-0.084107 -0.079650 0.655169 153 76 0
0.374089 -0.668222 -0.341827 153 76 0
-0.192684 0.367673 -0.401416 153 76 0
0.767039 0.390420 -0.143231 76 0 153
0.186602 -0.101369 0.645134 153 76 0
-0.672938 0.600390 0.250814 76 0 153
0.776496 0.358054 -0.122611 76 0 153
-0.251523 -0.725315 -0.361503 153 76 0
0.002101 0.838979 -0.229997 153 0 76
-0.679029 0.379901 0.481750 76 0 153
0.246616 -0.808592 -0.084038 153 76 0
0.469314 -0.675297 0.132679 153 76 0
0.064093 0.831783 -0.211229 153 0 76
0.403585 0.304692 0.334644 153 76 0
-0.264651 -0.072925 -0.647319 153 76 0
-0.856290 0.192191 0.326580 76 0 153
0.504061 -0.652612 -0.065593 153 76 0
-0.061777 0.865113 -0.158108 153 0 76
0.558949 -0.477723 -0.156135 153 76 0
0.274585 -0.808592 -0.268825 153 76 0
-0.776932 0.237435 0.439244 76 0 153
0.145992 -0.638483 0.437568 153 76 0
-0.612375 0.168078 0.190441 76 0 153
0.274049 -0.528425 0.436938 153 76 0
-0.514868 -0.331824 -0.279045 153 76 0
-0.292570 -0.746918 0.260546 153 76 0
0.307317 -0.155676 0.598277 153 76 0
0.488336 0.284463 -0.124050 76 0 153
0.612532 0.291332 -0.310796 76 0 153
-0.450952 -0.597428 0.058578 153 76 0
-0.551532 0.353240 0.324666 76 0 153
-0.564224 0.430458 0.294889 76 0 153
-0.090428 -0.746644 -0.441671 153 76 0
0.228413 0.188034 0.491151 153 0 76
0.541134 -0.363176 0.277232 153 76 0
0.188397 0.234702 0.531316 153 76 0
-0.765202 0.480163 0.069959 76 0 153
-0.231326 0.407190 0.244325 153 76 0
0.197640 -0.807388 0.334200 153 76 0
-0.178282 -0.418262 -0.551153 153 76 0
-0.619670 0.103682 -0.092519 153 76 0
0.197510 0.187058 -0.613583 153 76 0
0.455920 0.297700 -0.200115 76 0 153
0.307635 0.330401 0.537534 153 0 76
0.069997 0.460767 0.229540 153 76 0
-0.650694 -0.107715 -0.067211 153 76 0
0.327452 0.406531 0.217840 153 76 0
-0.395324 -0.769073 0.019944 153 76 0
-0.107753 -0.808592 0.141623 153 76 0
-0.691858 0.194656 0.188382 76 0 153
-0.637612 0.224669 0.300219 76 0 153
0.151328 0.409403 0.331428 153 76 0
-0.057911 0.428665 0.299426 153 76 0
-0.287515 0.354836 -0.349123 153 76 0
-0.453821 -0.174654 0.436247 153 76 0
0.034511 -0.808592 0.167039 153 76 0
0.213434 0.565180 0.343544 153 0 76
0.431615 0.335376 -0.171417 76 0 153
0.108574 -0.808592 -0.111570 153 76 0
-0.420550 0.335860 0.131148 153 76 0
-0.495903 -0.385297 0.212194 153 76 0
0.486176 0.243287 -0.262314 76 0 153
-0.347828 0.009326 -0.592393 153 76 0
0.485734 -0.531452 0.230736 153 76 0
-0.579190 0.313389 0.363484 76 0 153
0.057916 -0.808592 -0.160865 153 76 0
-0.519006 -0.159078 0.366072 153 76 0
0.144829 -0.808592 0.281376 153 76 0
-0.197276 -0.652752 -0.433359 153 76 0
-0.664807 0.266690 0.118656 76 0 153
0.664949 -0.147024 0.238693 153 76 0
-0.016483 0.332815 0.458290 153 76 0
-0.204936 -0.117324 -0.668963 153 76 0
-0.384376 -0.528982 0.283771 153 76 0
-0.105600 0.783825 -0.303352 153 0 76
0.048503 -0.539946 -0.539854 153 76 0
-0.204089 0.231045 -0.610857 153 0 76
-0.504687 0.275656 0.239040 76 0 153
0.105255 -0.075062 -0.712576 153 76 0
0.403245 -0.356986 -0.491934 153 76 0
0.174489 -0.304076 -0.625485 153 76 0
0.301314 0.327592 -0.437243 153 76 0
-0.158469 0.412809 0.288271 153 76 0
0.417280 0.387091 0.131824 153 76 0
0.697502 -0.002899 -0.199884 153 76 0
0.188673 -0.420950 -0.567732 153 76 0
-0.117412 0.259189 -0.538466 153 0 76
0.458648 -0.598484 -0.274439 153 76 0
0.460385 -0.305790 -0.470281 153 76 0
0.700301 -0.192704 -0.093317 153 76 0
0.211292 -0.175923 0.622633 153 76 0
0.355942 0.330465 0.342814 153 76 0
0.324344 0.108324 0.477015 153 0 76
0.516131 -0.506119 -0.247866 153 76 0
0.572621 0.108871 -0.399715 153 76 0
-0.384780 0.370402 -0.143174 153 76 0
0.043929 0.439583 0.287786 153 76 0
-0.556231 0.113876 0.252213 153 76 0
-0.554354 0.177749 0.218648 76 0 153
-0.475680 -0.389352 -0.295679 153 76 0
0.123048 0.259195 0.526759 153 76 0
-0.796919 0.415769 0.090423 76 0 153
-0.897148 0.336035 0.096907 76 0 153
0.215856 -0.808592 -0.264147 153 76 0
0.583070 -0.103278 0.394509 153 76 0
-0.750756 0.347108 0.094673 76 0 153
0.327383 -0.808592 -0.274214 153 76 0
0.209156 -0.630425 -0.472334 153 76 0
0.034378 0.844781 0.203588 153 0 76
-0.557978 0.175433 0.138796 76 0 153
0.613871 -0.335115 0.141204 153 76 0
-0.527372 -0.163528 -0.401190 153 76 0
-0.553659 0.217799 -0.085473 153 76 0
-0.273682 -0.676385 0.317092 153 76 0
0.323588 0.253428 0.547446 153 0 76
0.485436 -0.586729 0.186361 153 76 0
-0.395774 0.068253 -0.540353 153 76 0
-0.619260 0.003409 -0.226495 153 76 0
-0.079569 0.310748 -0.575329 153 0 76
-0.427009 0.250233 0.302938 153 76 0
0.109331 0.795253 0.284516 153 0 76
-0.512663 -0.390531 -0.211427 153 76 0
-0.086034 0.352729 0.418685 153 76 0
0.415437 0.406000 -0.050817 153 76 0
0.282260 0.033029 0.537614 153 0 76
-0.215814 0.301471 -0.590513 153 0 76
0.298349 -0.319302 -0.576129 153 76 0
0.715013 -0.140058 0.042448 153 76 0
0.220443 -0.252923 0.588150 153 76 0
-0.768801 0.551697 0.108641 76 0 153
-0.277758 0.203410 -0.487951 153 0 76
-0.526999 -0.411327 -0.119839 153 76 0
0.466403 -0.771457 -0.025909 153 76 0
-0.749824 0.285404 0.121113 76 0 153
0.113751 0.297984 -0.542114 153 76 0
-0.584185 0.201516 0.260429 76 0 153
-0.723206 0.343867 0.491030 76 0 153
-0.236417 0.229828 -0.489615 153 0 76
0.345385 0.365981 0.290832 153 76 0
-0.132232 0.822654 -0.049411 153 0 76
-0.558746 0.204559 0.308481 76 0 153
0.357639 0.104882 -0.594987 153 76 0
-0.753563 0.249591 0.119214 76 0 153
0.044259 -0.645053 -0.497913 153 76 0
-0.722709 0.222392 0.152774 76 0 153
-0.612283 0.168926 0.261904 76 0 153
0.116354 0.760202 0.124450 153 0 76
0.121120 -0.363391 -0.610160 153 76 0
0.056078 0.092622 -0.685359 153 76 0
-0.101925 0.527180 -0.527043 153 0 76
-0.071525 0.883032 0.020553 153 0 76
-0.455114 0.211193 -0.364485 153 76 0
0.623707 0.215006 -0.105241 153 76 0
-0.082800 0.482387 -0.144681 153 76 0
-0.705641 0.500227 0.463738 76 0 153
0.042663 -0.808592 0.015655 153 76 0
0.574533 -0.429188 0.127064 153 76 0
0.707217 -0.029165 0.123948 153 76 0
-0.438193 0.087275 -0.487957 153 76 0
-0.656378 0.208335 0.256119 76 0 153
-0.482143 -0.493958 0.105349 153 76 0
0.700711 0.502338 -0.143846 76 0 153
0.663018 -0.277647 0.038625 153 76 0
0.389332 -0.658093 0.281900 153 76 0
-0.361445 -0.585508 -0.327997 153 76 0
-0.755476 0.208040 0.219137 76 0 153
-0.273339 0.125802 -0.497817 153 0 76
-0.323391 0.183476 -0.540669 153 0 76
-0.075416 0.467358 -0.547404 153 0 76
0.507462 -0.258944 -0.454552 153 76 0
0.307782 -0.719905 -0.376108 153 76 0
-0.069923 0.857036 0.094125 153 0 76
0.262420 0.035876 -0.666021 153 76 0
-0.261502 -0.286193 0.525131 153 76 0
0.587094 -0.040953 0.392414 153 76 0
-0.914764 0.233774 0.214020 76 0 153
-0.614743 0.293420 0.348079 76 0 153
-0.537179 0.370871 0.276687 76 0 153
-0.258091 0.042008 -0.571712 153 0 76
-0.613110 0.491966 0.239295 76 0 153
-0.055726 -0.808592 -0.250417 153 76 0
-0.023467 0.836568 0.188041 153 0 76
-0.425625 -0.593245 -0.207148 153 76 0
-0.275008 -0.569906 -0.424144 153 76 0
-0.264421 -0.609240 -0.412534 153 76 0
0.240185 -0.808592 -0.165272 153 76 0
-0.548444 -0.197493 0.292663 153 76 0
-0.241693 -0.110428 0.606061 153 76 0
-0.152424 0.372186 -0.417950 153 76 0
0.630298 -0.180329 -0.334788 153 76 0
-0.094390 0.073142 -0.619256 153 0 76
0.208392 -0.285565 0.575451 153 76 0
-0.458576 0.315907 0.076152 153 76 0
0.590089 -0.160268 -0.414306 153 76 0
0.702585 -0.148078 0.104584 153 76 0
-0.646368 -0.101197 -0.127727 153 76 0
0.441009 0.332583 0.240621 153 76 0
-0.244877 0.351892 0.342254 153 76 0
-0.248996 -0.808592 0.217895 153 76 0
-0.275646 0.428158 0.110505 153 76 0
-0.452745 0.149546 -0.430849 153 76 0
-0.460856 0.261272 0.262341 76 0 153
-0.804047 0.188971 0.367401 76 0 153
-0.041700 0.365371 -0.462457 153 76 0
-0.398321 -0.760223 -0.055803 153 76 0
-0.265426 -0.808592 -0.140898 153 76 0
-0.089690 -0.178882 0.635506 153 76 0
0.019500 0.721699 -0.309094 153 0 76
-0.116296 -0.808592 -0.202198 153 76 0
0.473939 -0.124503 0.502433 153 76 0
-0.604952 -0.131334 0.217731 153 76 0
-0.261321 -0.175654 0.579067 153 76 0
0.404003 0.098615 -0.571920 153 76 0
-0.592185 -0.178287 0.221694 153 76 0
-0.482781 0.240264 0.099192 76 0 153
-0.519383 -0.091815 -0.437741 153 76 0
-0.305342 -0.623407 0.315573 153 76 0
-0.291755 -0.808592 0.064358 153 76 0
-0.128686 -0.282325 -0.629747 153 76 0
-0.663421 0.286409 0.447722 76 0 153
0.269996 0.412633 0.260226 153 76 0
-0.449105 -0.596097 -0.119612 153 76 0
-0.128850 0.217759 0.541315 153 76 0
0.355361 0.285826 0.465417 153 0 76
0.456157 -0.679894 -0.211339 153 76 0
-0.514646 -0.032917 0.395119 153 76 0
0.483375 -0.330437 -0.431489 153 76 0
-0.063818 0.798085 -0.031179 153 0 76
0.315104 0.095626 -0.623857 153 76 0
-0.052141 -0.808592 -0.065299 153 76 0
-0.323107 -0.745916 0.222999 153 76 0
-0.254147 -0.020471 0.600853 153 76 0
-0.035324 0.583045 -0.434118 153 0 76
-0.331676 0.104390 -0.520943 153 0 76
-0.247210 -0.562380 0.396150 153 76 0
-0.399639 -0.664987 0.143218 153 76 0
-0.026153 0.622388 -0.397024 153 0 76
-0.005765 -0.808272 0.357462 153 76 0
0.374598 -0.454894 0.410416 153 76 0
0.381759 -0.388902 0.440748 153 76 0
-0.070647 0.581830 -0.493537 153 0 76
0.467368 0.109950 -0.515199 153 76 0
0.694686 0.009476 0.153203 153 76 0
-0.689390 0.344962 0.444255 76 0 153
0.545789 0.178428 0.322213 153 76 0
-0.564453 0.011157 0.302210 153 76 0
-0.125696 -0.371328 0.538273 153 76 0
-0.532031 -0.125302 0.358562 153 76 0
0.201393 0.309122 0.585757 153 0 76
-0.765001 0.197289 0.302100 76 0 153
0.393230 0.079300 0.535774 153 76 0
0.088723 -0.808592 0.118632 153 76 0
0.128128 0.384207 0.380990 153 76 0
0.355164 -0.808589 -0.221121 153 76 0
-0.599335 0.514853 0.213883 76 0 153
-0.520999 0.175720 0.167719 76 0 153
-0.207273 -0.808592 0.145548 153 76 0
0.680722 -0.000153 0.212102 153 76 0
0.347822 0.148811 -0.575419 153 76 0
-0.706210 0.497102 0.092074 76 0 153
-0.613466 -0.040633 0.212593 153 76 0
0.371062 -0.516772 0.379846 153 76 0
0.028363 0.379239 0.398711 153 76 0
0.332226 -0.808592 -0.164902 153 76 0
-0.457159 -0.369429 0.295271 153 76 0
-0.582590 0.426629 0.188148 76 0 153
-0.146315 0.456320 -0.437933 153 0 76
-0.024350 0.465827 -0.257861 153 76 0
-0.499956 -0.476458 0.063118 153 76 0
-0.402746 -0.590645 -0.255698 153 76 0
0.078435 0.186649 0.585213 153 76 0
-0.249933 0.096373 -0.607640 153 0 76
0.213625 0.225530 0.492762 153 0 76
0.231193 -0.808592 0.257749 153 76 0
0.434932 -0.767264 0.141720 153 76 0
0.847581 0.439853 -0.302552 76 0 153
0.602530 0.458300 -0.070686 76 0 153
-0.507706 0.294140 0.148354 76 0 153
-0.323116 -0.525516 0.352922 153 76 0
0.216318 0.403995 -0.363822 153 76 0
0.710358 0.012374 -0.142657 153 76 0
0.083647 0.567514 0.470057 153 0 76
-0.209805 0.750059 -0.247348 153 0 76
-0.346154 -0.421563 0.390897 153 76 0
0.098744 0.854453 -0.135815 153 0 76
0.044516 0.443790 -0.327775 153 76 0
0.112769 0.492773 -0.039918 153 76 0
0.155809 0.007963 0.650262 153 76 0
-0.590677 -0.025110 -0.315359 153 76 0
-0.551694 -0.368728 0.000443 153 76 0
0.168955 -0.150201 -0.690898 153 76 0
0.301518 0.013322 0.580696 153 0 76
0.168967 0.459051 -0.249560 153 76 0
0.846272 0.481948 -0.316244 76 0 153
0.320600 0.294310 -0.466449 153 76 0
-0.907969 0.217394 0.298954 76 0 153
-0.627282 -0.121944 -0.194889 153 76 0
-0.624075 0.281092 0.148535 76 0 153
-0.233939 0.592516 -0.338682 153 0 76
0.115992 -0.461320 0.517776 153 76 0
0.297362 -0.046664 0.615514 153 76 0
0.614541 -0.108318 0.342851 153 76 0
-0.362414 0.390896 -0.108486 153 76 0
0.348854 0.075593 -0.613390 153 76 0
-0.624747 0.484983 0.421301 76 0 153
-0.722731 0.591118 0.163020 76 0 153
-0.152811 -0.808592 0.242766 153 76 0
-0.480074 -0.522653 -0.115777 153 76 0
0.562524 -0.508194 -0.051699 153 76 0
-0.142464 -0.808592 0.143703 153 76 0
0.701220 0.378325 -0.364667 76 0 153
-0.283964 -0.808092 -0.227411 153 76 0
-0.623708 0.096736 -0.059026 153 76 0
0.686465 -0.139705 0.173256 153 76 0
0.234471 0.076464 -0.661552 153 76 0
0.511826 -0.383255 -0.358877 153 76 0
-0.754136 0.193236 0.385331 76 0 153
0.017930 -0.014763 0.661452 153 76 0
0.418665 0.137623 -0.540482 153 76 0
-0.197039 -0.808592 -0.155504 153 76 0
-0.165253 0.177871 -0.628492 153 0 76
-0.105060 -0.598152 0.446380 153 76 0
-0.164576 -0.187614 0.612984 153 76 0
-0.050778 0.040515 -0.699411 153 76 0
0.563204 0.526827 -0.253132 76 0 153
-0.228811 0.652592 -0.380779 153 0 76
0.558974 0.494980 -0.123953 76 0 153
0.502996 0.342331 -0.102136 153 76 0
0.522006 0.203257 0.329774 153 76 0
-0.638451 0.251893 0.382108 76 0 153
-0.103108 -0.807456 -0.391966 153 76 0
0.125560 -0.760196 0.398514 153 76 0
-0.623125 0.386495 0.125822 76 0 153
-0.005518 -0.294074 -0.645826 153 76 0
0.311064 0.425128 -0.233258 153 76 0
-0.391055 0.343506 -0.228693 153 76 0
0.076010 0.586454 0.418572 153 0 76
0.307193 0.039149 0.478261 153 0 76
-0.197441 0.279115 -0.513428 153 76 0
0.732513 0.321078 -0.360992 76 0 153
-0.001420 -0.530282 -0.543279 153 76 0
0.282419 0.439685 -0.216385 153 76 0
-0.150723 0.478506 -0.056077 153 76 0
-0.093146 0.173374 0.581127 153 76 0
0.573273 -0.126427 -0.452219 153 76 0
0.368109 -0.104284 0.575214 153 76 0
-0.524188 -0.373962 0.145780 153 76 0
0.144201 -0.542872 -0.527299 153 76 0
0.070545 0.456440 -0.292284 153 76 0
0.615665 -0.213567 0.284451 153 76 0
0.011478 -0.366168 0.563055 153 76 0
-0.158465 0.229522 -0.518548 153 0 76
0.228320 -0.803130 -0.393989 153 76 0
-0.383863 -0.025908 -0.575143 153 76 0
-0.022333 -0.808592 -0.184713 153 76 0
0.228434 -0.020418 0.634479 153 76 0
-0.554942 0.079394 0.283782 153 76 0
-0.503153 -0.480483 0.015748 153 76 0
-0.200899 0.503887 -0.394150 153 0 76
0.465169 -0.600682 0.211226 153 76 0
0.693244 0.091407 -0.112189 153 76 0
0.692616 0.098780 -0.044106 153 76 0
-0.314617 -0.247485 0.515823 153 76 0
0.055156 0.179689 -0.640030 153 76 0
0.261862 0.383054 0.326489 153 76 0
0.455951 -0.484382 -0.362966 153 76 0
-0.124005 0.577884 -0.495206 153 0 76
0.090634 0.507820 0.479962 153 0 76
-0.286545 0.404029 -0.234533 153 76 0
0.512417 0.316524 0.134191 153 76 0
-0.107452 -0.572177 -0.506435 153 76 0
0.016270 -0.350334 -0.620060 153 76 0
0.338352 0.295170 0.404663 153 76 0
-0.125828 -0.201064 0.618123 153 76 0
-0.635857 0.303257 0.112687 76 0 153
-0.531915 0.047478 -0.392961 153 76 0
-0.374546 -0.519449 -0.354019 153 76 0
0.390369 -0.039853 0.564527 153 76 0
-0.754893 0.359722 0.465170 76 0 153
-0.874013 0.226605 0.168650 76 0 153
0.269730 0.456825 -0.154751 153 76 0
0.439307 -0.738231 -0.196079 153 76 0
-0.217152 0.423917 -0.263208 153 76 0
0.119284 -0.019174 -0.709966 153 76 0
0.814229 0.509827 -0.337726 76 0 153
-0.555378 -0.360808 -0.033260 153 76 0
0.759772 0.468006 -0.362349 76 0 153
0.113558 0.489761 -0.109872 153 76 0
-0.080276 -0.808592 0.007424 153 76 0
-0.533332 0.239807 0.119346 76 0 153
0.143912 0.020897 0.559632 153 0 76
0.661788 0.098853 -0.225152 153 76 0
0.067053 -0.717465 0.418520 153 76 0
-0.562043 -0.132462 -0.354425 153 76 0
-0.603072 -0.090471 0.240279 153 76 0
-0.353810 0.401011 -0.051541 153 76 0
0.570404 0.283713 -0.023501 153 76 0
-0.366943 0.353164 0.197115 153 76 0
0.129709 0.868982 0.103046 153 0 76
-0.073021 0.101655 0.624134 153 76 0
0.858073 0.510804 -0.224429 76 0 153
0.524503 0.357343 -0.239162 76 0 153
-0.757042 0.205513 0.334002 76 0 153
-0.263596 0.496983 -0.397983 153 0 76
0.817861 0.442388 -0.162346 76 0 153
-0.124182 -0.067390 0.644983 153 76 0
-0.192580 -0.807178 0.311020 153 76 0
0.012283 -0.808592 -0.099325 153 76 0
-0.331974 -0.760543 -0.253741 153 76 0
0.532393 0.252009 -0.074319 76 0 153
-0.534618 0.192221 -0.242768 153 76 0
-0.234726 0.592775 -0.433221 153 0 76
-0.142292 -0.785834 0.364183 153 76 0
0.583255 0.480023 -0.092575 76 0 153
-0.427049 -0.114893 -0.531815 153 76 0
0.365844 0.167196 0.517597 153 0 76
0.331603 -0.456395 -0.487794 153 76 0
-0.139341 0.429979 -0.310496 153 76 0
-0.662051 0.445549 0.467114 76 0 153
0.444464 -0.390265 -0.432212 153 76 0
-0.166111 0.209265 -0.587078 153 76 0
-0.578556 0.446909 0.378342 76 0 153
0.126633 0.878412 0.044423 153 0 76
0.546786 -0.543112 -0.082970 153 76 0
0.492789 -0.261283 0.417472 153 76 0
0.324933 -0.119856 0.597519 153 76 0
0.494647 0.019827 0.479500 153 76 0
-0.091242 -0.746729 0.391758 153 76 0
0.183086 0.412335 -0.363372 153 76 0
-0.117933 -0.808592 -0.085605 153 76 0
0.527428 0.298958 -0.115528 76 0 153
-0.601803 0.410392 0.152149 76 0 153
-0.857234 0.383695 0.067655 76 0 153
0.625562 -0.324924 -0.166046 153 76 0
0.700141 0.557675 -0.285273 76 0 153
-0.864443 0.233031 0.311867 76 0 153
0.764276 0.422999 -0.132436 76 0 153
0.421214 -0.597822 0.283150 153 76 0
-0.400040 -0.640449 0.168022 153 76 0
0.250878 0.666143 0.262107 153 0 76
-0.575372 0.379119 0.281106 76 0 153
-0.111103 0.086060 -0.671834 153 76 0
-0.178314 0.233337 0.514389 153 76 0
-0.624105 0.549977 0.219455 76 0 153
-0.575813 -0.315849 -0.030717 153 76 0
0.472322 -0.491613 0.285385 153 76 0
-0.592071 0.338957 0.386797 76 0 153
0.609850 -0.396249 -0.013700 153 76 0
0.415237 -0.084166 0.549686 153 76 0
0.295428 -0.625042 -0.430086 153 76 0
0.598188 0.220116 0.145285 153 76 0
0.147302 0.233421 0.599047 153 0 76
0.660435 0.493863 -0.154889 76 0 153
-0.028607 0.484251 0.118005 153 76 0
0.637341 -0.266354 0.178189 153 76 0
0.180087 0.334481 0.435254 153 76 0
-0.052840 -0.793624 -0.440402 153 76 0
-0.395906 -0.650538 -0.218125 153 76 0
0.206159 0.730134 0.329863 153 0 76
-0.224831 -0.285781 0.546142 153 76 0
0.531309 -0.584225 -0.068836 153 76 0
0.073482 -0.566273 0.478605 153 76 0
0.123594 -0.808592 -0.166939 153 76 0
0.537714 0.045965 0.427231 153 76 0
-0.052182 0.509210 -0.484734 153 0 76
0.298394 -0.453788 -0.508038 153 76 0
0.545456 0.198043 -0.192728 76 0 153
-0.309802 0.276516 -0.535132 153 0 76
-0.782106 0.514644 0.119376 76 0 153
0.288149 0.309713 0.449799 153 0 76
0.147835 0.338142 0.580512 153 0 76
0.067850 0.634862 0.366701 153 0 76
-0.032412 0.477288 0.157072 153 76 0
-0.862316 0.390230 0.103788 76 0 153
-0.029655 -0.220266 -0.679972 153 76 0
-0.120506 0.147110 -0.639635 153 76 0
0.255114 0.095896 0.600986 153 0 76
0.428844 0.126723 0.490077 153 76 0
-0.086384 0.268849 -0.598043 153 0 76
-0.065013 0.427797 -0.546323 153 0 76
0.488388 -0.292847 0.400706 153 76 0
0.206369 -0.693342 -0.447300 153 76 0
-0.426276 -0.319047 -0.425224 153 76 0
0.208956 -0.808592 0.136259 153 76 0
-0.525267 0.255386 -0.010240 153 76 0
-0.216916 0.273889 -0.483384 153 0 76
0.154647 -0.332173 0.567820 153 76 0
-0.170850 -0.805716 -0.371685 153 76 0
0.676052 -0.063595 -0.286853 153 76 0
-0.189757 0.463284 -0.127489 153 76 0
-0.412528 0.213009 0.366130 153 76 0
0.096526 -0.272878 0.605394 153 76 0
-0.049418 0.358562 0.420825 153 76 0
-0.138512 0.467019 -0.183619 153 76 0
0.646299 -0.311855 -0.092491 153 76 0
0.637304 0.278199 -0.352400 76 0 153
-0.553375 -0.304918 -0.209146 153 76 0
-0.734875 0.233114 0.181966 76 0 153
-0.295900 0.431336 -0.040921 153 76 0
0.529528 -0.566081 0.077794 153 76 0
0.037246 0.480505 0.153573 153 76 0
-0.153993 0.361269 -0.591837 153 0 76
0.603590 0.198951 -0.228411 153 76 0
0.505597 -0.641676 0.044037 153 76 0
0.503977 -0.633117 -0.120012 153 76 0
0.105395 0.509607 0.509822 153 0 76
0.193543 0.434401 0.547658 153 0 76
0.084668 0.260303 -0.580536 153 76 0
0.220147 0.460001 0.155715 153 76 0
-0.118551 0.649183 -0.297218 153 0 76
-0.050770 0.618558 -0.468904 153 0 76
-0.508570 0.254914 -0.162586 153 76 0
-0.270861 0.326315 -0.462543 153 0 76
-0.568318 0.157868 -0.198735 153 76 0
-0.082835 0.331242 0.446717 153 76 0
-0.251619 0.396143 -0.540388 153 0 76
0.568539 0.414164 -0.111406 76 0 153
0.424735 -0.216028 -0.557360 153 76 0
0.452093 0.198835 -0.459988 153 76 0
0.187811 0.478838 -0.133799 153 76 0
-0.526632 -0.426133 -0.021287 153 76 0
-0.628248 -0.045408 -0.209814 153 76 0
0.235916 0.601229 0.438359 153 0 76
0.225008 -0.617765 0.422458 153 76 0
-0.623289 -0.195303 0.088253 153 76 0
-0.061991 -0.698787 -0.466303 153 76 0
-0.307720 -0.073984 0.571817 153 76 0
0.268652 -0.242197 -0.630564 153 76 0
-0.059960 0.876692 0.060295 153 0 76
0.006945 -0.399844 0.548053 153 76 0
0.160100 -0.808592 0.105992 153 76 0
0.498234 0.283303 -0.294513 153 76 0
0.108855 -0.742261 -0.456705 153 76 0
-0.441172 0.282796 0.169275 76 0 153
0.067038 -0.300874 -0.643030 153 76 0
-0.475335 0.119687 -0.429391 153 76 0
-0.064598 0.130430 -0.662642 153 76 0
0.478063 -0.678578 -0.147094 153 76 0
-0.425939 -0.663204 0.049418 153 76 0
-0.642211 0.449378 0.406049 76 0 153
0.014001 0.718476 -0.356723 153 0 76
0.197502 -0.467634 0.494758 153 76 0
-0.380019 -0.803680 -0.007503 153 76 0
0.083698 -0.718806 -0.466899 153 76 0
-0.235145 0.549399 -0.364864 153 0 76
-0.497262 -0.235826 0.348835 153 76 0
0.119221 -0.429702 0.531156 153 76 0
-0.008870 0.820969 -0.263184 153 0 76
-0.027354 0.491323 0.046840 153 76 0
0.123983 0.468627 -0.237047 153 76 0
0.152573 0.091519 0.549146 153 0 76
0.556949 0.064750 -0.450166 153 76 0
0.349068 -0.359939 -0.526081 153 76 0
-0.164456 -0.034725 -0.683775 153 76 0
0.014328 -0.808592 0.095739 153 76 0
0.348493 0.402775 0.441488 153 0 76
0.125763 0.069233 -0.690947 153 76 0
0.408349 -0.143044 0.544422 153 76 0
-0.189757 -0.286780 -0.610456 153 76 0
-0.387351 -0.723680 -0.153833 153 76 0
-0.377577 0.320115 0.256049 153 76 0
-0.067339 0.769593 -0.119451 153 0 76
-0.465799 0.287768 -0.207318 153 76 0
0.266937 -0.500962 0.453903 153 76 0
-0.388676 -0.719439 0.104437 153 76 0
-0.700269 0.465376 0.118408 76 0 153
0.667192 0.251452 -0.233136 76 0 153
0.503437 0.049927 -0.509919 153 76 0
0.356385 -0.802583 -0.288796 153 76 0
-0.411786 -0.207664 -0.512496 153 76 0
0.583126 0.328979 -0.352924 76 0 153
-0.597663 -0.263280 0.060760 153 76 0
-0.623511 0.467303 0.186584 76 0 153
-0.102309 0.156409 -0.576739 153 0 76
0.513928 -0.228826 -0.467797 153 76 0
0.818879 0.407189 -0.319519 76 0 153
0.598458 0.353517 -0.115269 76 0 153
-0.529459 0.171279 -0.286077 153 76 0
0.637720 -0.236106 -0.272660 153 76 0
-0.383156 -0.688124 0.160413 153 76 0
0.213074 0.007134 -0.684927 153 76 0
-0.188181 0.111775 -0.520279 153 0 76
0.634835 -0.068740 -0.363235 153 76 0
-0.702499 0.180151 0.259571 76 0 153
-0.258317 -0.431566 0.451748 153 76 0
0.348309 0.253664 0.465854 153 0 76
-0.284659 -0.371774 -0.516349 153 76 0
0.116079 -0.307227 0.587102 153 76 0
-0.251493 0.383029 -0.329213 153 76 0
-0.613825 0.485404 0.335731 76 0 153
-0.053594 0.406342 -0.394677 153 76 0
0.240160 0.449431 -0.228150 153 76 0
-0.864591 0.426937 0.071386 76 0 153
-0.276717 -0.808592 0.110051 153 76 0
0.311933 -0.475397 0.439823 153 76 0
0.696622 0.089370 0.021357 153 76 0
-0.301405 0.280606 -0.449426 153 76 0
0.019743 0.744115 -0.246605 153 0 76
-0.582360 0.123619 0.166692 153 76 0
0.322839 0.407388 0.494522 153 0 76
0.297284 -0.808592 -0.162777 153 76 0
-0.186775 0.124394 -0.629184 153 0 76
0.167976 0.158095 0.530117 153 0 76
0.606464 0.027969 0.345228 153 76 0
-0.220139 -0.227201 0.578670 153 76 0
-0.165115 0.455387 -0.209893 153 76 0
-0.196965 0.423836 -0.555814 153 0 76
-0.436088 -0.648108 0.010921 153 76 0
0.583937 -0.428312 -0.143987 153 76 0
-0.063258 -0.148624 0.649225 153 76 0
0.011956 -0.763857 0.407885 153 76 0
0.641349 -0.200805 -0.300184 153 76 0
0.137766 -0.808592 -0.276618 153 76 0
0.628369 -0.034858 0.323741 153 76 0
0.661493 -0.245521 0.124764 153 76 0
-0.688202 0.380231 0.110169 76 0 153
0.070991 -0.481752 -0.563080 153 76 0
-0.111834 0.101822 -0.570370 153 0 76
-0.236609 0.680301 -0.334418 153 0 76
0.575571 -0.369902 0.209400 153 76 0
0.278152 0.399901 -0.332129 153 76 0
-0.277611 0.422472 -0.182766 153 76 0
-0.470684 0.244600 0.183913 76 0 153
-0.566455 0.200451 -0.019388 153 76 0
0.627994 0.349681 -0.401851 76 0 153
-0.438123 -0.053159 -0.526020 153 76 0
-0.075160 -0.036728 -0.707182 153 76 0
-0.104302 0.111991 -0.628209 153 0 76
0.017919 0.851989 -0.204240 153 0 76
0.394106 -0.461041 -0.439365 153 76 0
-0.220088 0.461153 -0.037720 153 76 0
0.202426 0.275254 0.593211 153 0 76
-0.110256 0.299698 -0.524331 153 76 0
0.717484 0.538223 -0.326658 76 0 153
0.480574 -0.709072 0.024643 153 76 0
0.380367 -0.808478 0.100630 153 76 0
0.322420 -0.577428 -0.435894 153 76 0
0.651792 -0.040615 0.283545 153 76 0
-0.712349 0.434344 0.069267 76 0 153
-0.290896 0.333596 -0.382469 153 76 0
-0.227208 -0.808592 0.079605 153 76 0
-0.753657 0.303479 0.077875 76 0 153
0.541461 -0.368123 -0.322405 153 76 0
-0.385537 0.214968 0.390740 153 76 0
0.021466 -0.808592 -0.048942 153 76 0
0.161972 0.857342 0.018447 153 0 76
-0.575424 0.161523 0.263235 76 0 153
0.820623 0.374393 -0.215634 76 0 153
0.653371 -0.262179 -0.175804 153 76 0
0.320176 -0.266950 0.542492 153 76 0
0.145076 0.124206 0.557368 153 0 76
0.133201 0.533157 0.507973 153 0 76
-0.058897 0.463326 0.204566 153 76 0
-0.072760 0.220062 -0.604470 153 76 0
0.227921 -0.514002 -0.515435 153 76 0
0.538986 0.315214 -0.024137 153 76 0
0.033430 0.784001 -0.121889 153 0 76
0.226380 0.135442 -0.636570 153 76 0
-0.267973 0.190064 -0.552144 153 76 0
0.034057 0.894384 0.047982 153 0 76
0.217727 -0.808592 -0.016089 153 76 0
0.059901 -0.808592 -0.310437 153 76 0
0.031929 0.279206 -0.564628 153 76 0
