ply
format ascii 1.0
element vertex 623
property float x
property float y
property float z
property float nx
property float ny
property float nz
property uchar red
property uchar green
property uchar blue
property float opacity
end_header
-0.808481 0.361485 0.094868 0.176910 0.183200 0.967027 128 0 0 1.000000
0.312722 0.033029 0.131323 0.000000 -1.000000 -0.000000 255 255 255 1.000000
-0.259740 0.167379 -0.494714 0.113914 -0.119659 0.986258 128 0 0 1.000000
-0.228247 0.033029 -0.176930 0.000000 -1.000000 -0.000000 255 255 255 1.000000
0.033207 -0.184145 -0.690820 0.002992 0.316756 0.948502 255 255 255 1.000000
0.497245 -0.372401 0.334613 -0.719864 0.409686 -0.560315 255 255 255 1.000000
-0.314752 0.033029 -0.188605 -0.000000 1.000000 0.000000 255 255 255 1.000000
0.181907 0.009033 0.603086 -0.000739 -1.000000 -0.000182 255 255 255 1.000000
0.396574 -0.520429 -0.397301 -0.644054 0.378226 0.664936 255 255 255 1.000000
-0.448760 0.178578 -0.406842 -0.664990 0.531431 -0.524757 128 0 0 1.000000
0.689484 0.033029 -0.169359 0.000000 -1.000000 -0.000000 255 255 255 1.000000
0.786529 0.461215 -0.140735 -0.436770 -0.093512 -0.894700 128 0 0 1.000000
0.047764 0.844978 0.204660 0.035068 -0.894253 -0.446185 255 255 255 1.000000
-0.126637 0.838733 -0.027323 -0.919337 -0.023977 0.392740 128 0 0 1.000000
0.450521 0.269918 0.328074 -0.564919 -0.670807 -0.480504 255 255 255 1.000000
0.110228 0.456162 -0.276684 0.089558 0.949595 -0.300414 128 0 0 1.000000
-0.777438 0.166682 0.261124 -0.097642 0.986957 0.127995 255 255 255 1.000000
0.368297 0.033029 -0.577709 0.000000 -1.000000 -0.000000 255 255 255 1.000000
0.094360 -0.805073 0.131711 -0.000000 1.000000 0.000000 255 255 255 1.000000
0.840157 0.403852 -0.215307 0.854910 -0.436977 0.279607 128 0 0 1.000000
0.663993 0.261843 -0.349367 -0.305243 -0.831579 -0.464008 128 0 0 1.000000
0.232063 0.459197 0.134770 -0.232522 -0.954101 -0.188745 255 255 255 1.000000
0.367152 0.397178 -0.229418 -0.431119 -0.862298 0.265666 255 255 255 1.000000
0.218574 0.525180 0.368577 -0.209729 -0.531574 -0.820636 128 0 0 1.000000
-0.118453 0.436291 0.248474 -0.191090 0.920473 0.340901 128 0 0 1.000000
0.662644 -0.233146 0.129516 0.880374 -0.421854 0.216751 209 105 29 1.000000
0.456678 0.090296 -0.533617 -0.592799 -0.370546 0.715042 255 255 255 1.000000
0.579775 -0.457166 -0.051391 -0.918901 0.391980 0.044422 255 255 255 1.000000
-0.522981 0.253598 0.122348 -0.014817 -0.324341 0.945824 255 255 255 1.000000
-0.356327 -0.716273 0.178406 -0.821357 -0.378399 0.426834 209 105 29 1.000000
0.112884 0.489381 -0.029966 -0.034788 -0.999395 -0.000182 255 255 255 1.000000
0.482375 -0.195384 0.463896 -0.634028 0.344634 -0.692269 255 255 255 1.000000
-0.683840 0.211256 0.236450 0.076651 0.987910 0.134753 128 0 0 1.000000
0.298493 -0.246651 0.562016 0.369545 -0.429615 0.823934 209 105 29 1.000000
0.678493 0.315727 -0.075432 -0.369139 -0.637963 0.675825 128 0 0 1.000000
0.404187 -0.532194 0.332994 0.664942 -0.376222 0.645221 209 105 29 1.000000
0.282963 0.033029 0.020134 0.000000 -1.000000 -0.000000 255 255 255 1.000000
0.304983 0.294800 0.419697 -0.365495 -0.709302 -0.602748 255 255 255 1.000000
-0.015287 0.485626 0.097674 0.044216 -0.993166 -0.108011 255 255 255 1.000000
0.414124 -0.761750 0.162821 0.828674 -0.379290 0.411629 209 105 29 1.000000
-0.007389 0.682394 -0.402142 0.752662 0.267768 -0.601498 128 0 0 1.000000
0.152675 -0.805073 0.078385 -0.000000 1.000000 0.000000 255 255 255 1.000000
0.689654 0.378587 -0.046599 0.122308 -0.067472 0.990196 128 0 0 1.000000
0.557433 -0.498508 -0.115533 -0.910879 0.381164 0.158156 255 255 255 1.000000
-0.436401 -0.325385 0.356188 -0.705282 -0.421006 0.570378 209 105 29 1.000000
-0.240088 0.306551 -0.469638 -0.151032 0.267949 -0.951521 255 255 255 1.000000
0.446341 -0.720689 -0.184914 0.863168 -0.377127 -0.335732 209 105 29 1.000000
-0.225212 -0.805073 -0.170898 0.000000 -1.000000 -0.000000 209 105 29 1.000000
-0.342833 -0.184987 -0.574998 0.537346 0.318090 0.781075 255 255 255 1.000000
0.246968 0.443765 0.179448 -0.259871 -0.932197 -0.251945 255 255 255 1.000000
-0.536751 0.020601 -0.391224 -0.829169 0.174957 -0.530913 209 105 29 1.000000
0.272180 0.351914 0.364076 -0.315099 -0.795052 -0.518272 255 255 255 1.000000
-0.740263 0.203705 0.250747 0.270271 -0.943694 -0.190773 255 255 255 1.000000
-0.513160 0.078329 -0.400377 0.775532 -0.341050 0.531259 255 255 255 1.000000
-0.681507 0.600081 0.328881 -0.222137 -0.934060 -0.279619 255 255 255 1.000000
0.277059 0.412326 0.245982 0.309746 0.884838 0.348022 128 0 0 1.000000
0.159626 0.033029 -0.033086 -0.000000 1.000000 0.000000 255 255 255 1.000000
-0.229314 0.033029 -0.348734 -0.000000 1.000000 0.000000 255 255 255 1.000000
0.295138 -0.321617 0.523014 -0.388076 0.422713 -0.818969 255 255 255 1.000000
0.168150 -0.805073 0.035705 0.000000 -1.000000 -0.000000 209 105 29 1.000000
-0.625268 0.550285 0.346609 -0.706854 -0.647364 -0.285091 255 255 255 1.000000
0.042929 0.033029 -0.617946 -0.000000 1.000000 0.000000 255 255 255 1.000000
-0.473434 -0.332752 0.292502 -0.769255 -0.421233 0.480425 209 105 29 1.000000
-0.141390 -0.398661 0.517787 0.283537 0.405404 -0.869054 255 255 255 1.000000
-0.370105 0.361715 0.159910 -0.535983 0.807941 0.244854 128 0 0 1.000000
0.215438 -0.692277 0.391064 0.368358 -0.375890 0.850305 209 105 29 1.000000
0.528627 0.306288 0.096781 0.666823 0.726711 0.165041 128 0 0 1.000000
-0.078729 0.486865 -0.033141 -0.089130 0.995981 -0.008816 128 0 0 1.000000
-0.126227 0.567549 -0.501624 0.140502 -0.519578 0.842792 255 255 255 1.000000
0.570038 -0.108510 0.405106 0.773094 -0.126369 0.621576 209 105 29 1.000000
-0.213143 -0.772428 -0.364069 -0.546789 -0.378220 -0.746975 209 105 29 1.000000
-0.034269 0.182653 0.584991 0.095353 -0.537505 -0.837852 255 255 255 1.000000
0.055896 -0.563018 0.476800 0.037582 -0.374853 0.926322 209 105 29 1.000000
0.274081 0.348466 -0.418144 -0.318148 -0.789874 0.524292 255 255 255 1.000000
-0.342504 0.033029 -0.292775 -0.000000 1.000000 0.000000 255 255 255 1.000000
-0.392203 -0.711263 -0.140456 -0.893356 -0.378658 -0.241935 209 105 29 1.000000
-0.309367 -0.015383 -0.615532 -0.500826 0.106919 -0.858919 209 105 29 1.000000
0.655622 -0.264278 0.097505 -0.882418 0.436727 -0.174948 255 255 255 1.000000
-0.037631 0.033029 0.395502 0.000000 -1.000000 -0.000000 255 255 255 1.000000
-0.041223 0.033029 0.095964 0.000000 -1.000000 -0.000000 255 255 255 1.000000
0.105853 0.808442 -0.034411 0.295980 -0.924349 -0.240780 128 0 0 1.000000
-0.348303 0.386500 0.113840 -0.501298 0.846078 0.181255 128 0 0 1.000000
-0.055288 0.886334 0.029957 -0.282051 0.930996 0.231720 128 0 0 1.000000
-0.031385 0.789972 -0.052493 -0.016116 -0.972380 0.232848 128 0 0 1.000000
-0.419095 0.256337 0.258327 -0.612700 0.654253 0.443341 128 0 0 1.000000
-0.911607 0.238933 0.194817 -0.619638 -0.696479 -0.361894 128 0 0 1.000000
-0.532501 0.241395 -0.003030 -0.777070 0.628685 0.030301 128 0 0 1.000000
0.086597 0.055549 0.644474 0.073348 0.292892 0.953328 128 0 0 1.000000
0.021835 0.033029 0.134754 -0.000000 1.000000 0.000000 255 255 255 1.000000
-0.116945 0.478596 -0.108043 0.156359 -0.983890 0.086674 255 255 255 1.000000
-0.070074 0.321057 -0.507380 -0.141598 0.747985 -0.648436 128 0 0 1.000000
0.607981 0.235310 -0.020771 -0.785013 -0.619453 -0.005756 255 255 255 1.000000
-0.334996 0.019883 0.544778 0.536360 -0.173995 -0.825860 255 255 255 1.000000
-0.640965 -0.058337 -0.152035 0.982805 0.000992 0.184646 255 255 255 1.000000
-0.498270 0.191887 0.249116 0.183220 -0.397407 0.899165 255 255 255 1.000000
0.283551 0.454893 -0.124085 -0.297467 -0.947370 0.118339 255 255 255 1.000000
-0.046028 0.033029 -0.425551 -0.000000 1.000000 0.000000 255 255 255 1.000000
-0.539647 0.060827 0.316012 0.820363 -0.300132 -0.486750 255 255 255 1.000000
-0.172800 -0.683541 0.378789 0.423364 0.377679 -0.823481 255 255 255 1.000000
-0.591717 0.281722 0.365511 0.604014 -0.316765 0.731319 128 0 0 1.000000
-0.385345 0.377582 -0.047773 0.552648 -0.832858 0.030450 255 255 255 1.000000
0.834717 0.526164 -0.199693 0.657550 0.461283 0.595690 128 0 0 1.000000
-0.697345 0.347202 0.086962 -0.451066 0.258722 0.854168 255 255 255 1.000000
-0.296057 0.455823 -0.434421 0.863100 0.058375 -0.501649 255 255 255 1.000000
0.028469 0.033029 0.525207 0.000000 -1.000000 -0.000000 255 255 255 1.000000
0.630794 -0.221575 -0.296483 -0.834376 0.399111 0.380168 255 255 255 1.000000
-0.092139 0.478732 0.091634 -0.130423 0.984079 0.120739 128 0 0 1.000000
0.221572 0.212190 0.535022 0.256075 0.584530 0.769903 128 0 0 1.000000
0.396677 -0.360988 -0.492379 0.557475 -0.412220 -0.720622 209 105 29 1.000000
-0.483658 -0.357096 -0.302787 0.801798 0.415570 0.429443 255 255 255 1.000000
0.384370 0.054570 0.546894 0.498451 0.292319 0.816147 128 0 0 1.000000
-0.332343 0.205737 -0.497842 -0.503240 0.572196 -0.647565 128 0 0 1.000000
-0.163211 0.349460 -0.593200 0.177793 -0.286298 0.941501 255 255 255 1.000000
-0.558322 0.193215 0.130048 -0.397905 -0.333088 -0.854824 128 0 0 1.000000
-0.106957 0.033029 0.508490 0.000000 -1.000000 -0.000000 255 255 255 1.000000
0.514205 0.097766 -0.472119 -0.673130 -0.391630 0.627313 255 255 255 1.000000
-0.395735 -0.291553 0.418579 0.628184 0.431000 -0.647784 255 255 255 1.000000
0.059621 -0.408262 -0.590775 0.039615 -0.403343 -0.914191 209 105 29 1.000000
-0.205407 0.509149 -0.509878 0.413362 -0.459207 0.786296 255 255 255 1.000000
0.324608 -0.253518 -0.592597 -0.408736 0.434839 0.802402 255 255 255 1.000000
-0.499883 -0.461769 -0.125137 -0.904840 -0.390374 -0.169919 209 105 29 1.000000
-0.479362 0.008077 0.423333 -0.744263 0.158976 0.648690 209 105 29 1.000000
0.230390 0.129465 0.497331 -0.390416 -0.068371 -0.918096 128 0 0 1.000000
-0.374743 -0.232511 0.478967 0.572930 0.419090 -0.704354 255 255 255 1.000000
-0.426604 -0.663369 0.004605 -0.924380 -0.376947 0.058587 209 105 29 1.000000
0.680514 0.323941 -0.394612 -0.278389 0.174550 0.944474 128 0 0 1.000000
-0.116056 0.033029 0.429756 0.000000 -1.000000 -0.000000 255 255 255 1.000000
-0.052722 0.033029 -0.006544 -0.000000 1.000000 0.000000 255 255 255 1.000000
-0.124198 0.350924 -0.455032 0.212039 -0.792479 0.571853 255 255 255 1.000000
-0.198129 0.200850 -0.617730 0.277456 -0.143775 0.949919 255 255 255 1.000000
0.051539 -0.639922 -0.496332 0.032610 -0.376673 -0.925772 209 105 29 1.000000
-0.416224 0.216815 -0.402348 0.618978 -0.590620 0.517720 255 255 255 1.000000
-0.396144 0.033029 -0.369163 -0.000000 1.000000 0.000000 255 255 255 1.000000
0.507352 0.059909 -0.498241 0.674052 0.298999 -0.675465 128 0 0 1.000000
0.225017 0.067759 0.613497 -0.270321 -0.315411 -0.909639 255 255 255 1.000000
-0.630547 0.482777 0.369331 0.735628 0.476619 0.481338 255 255 255 1.000000
-0.351375 -0.097377 0.541955 0.560608 0.098760 -0.822171 255 255 255 1.000000
-0.586553 0.443899 0.193657 -0.851810 -0.313287 0.419846 255 255 255 1.000000
0.567003 0.283140 -0.078343 0.720564 0.689616 -0.072234 128 0 0 1.000000
-0.272965 -0.322733 0.494456 0.461181 0.423692 -0.779614 255 255 255 1.000000
-0.385872 0.103202 0.476283 0.588113 -0.405475 -0.699795 255 255 255 1.000000
0.054299 0.033029 0.169308 -0.000000 1.000000 0.000000 255 255 255 1.000000
0.165892 0.326625 0.444407 -0.175574 -0.756378 -0.630132 255 255 255 1.000000
0.157921 -0.579025 0.455129 0.229303 -0.375406 0.898048 209 105 29 1.000000
0.148772 0.632681 0.446519 -0.113506 -0.589879 -0.799475 255 255 255 1.000000
0.456669 0.376931 0.017800 -0.553621 -0.830853 -0.056454 255 255 255 1.000000
0.629626 0.033029 -0.027516 0.000000 -1.000000 -0.000000 255 255 255 1.000000
0.052369 0.862119 -0.165655 0.244708 0.885175 -0.395706 128 0 0 1.000000
0.042215 -0.211764 0.630599 0.010118 -0.382767 0.923790 209 105 29 1.000000
0.714485 -0.131901 0.038681 -0.978471 0.184917 -0.091651 255 255 255 1.000000
0.341162 -0.692911 0.305444 0.628789 -0.377914 0.679563 209 105 29 1.000000
-0.003204 -0.041801 0.660730 -0.055776 0.040479 0.997622 209 105 29 1.000000
-0.533255 -0.285964 -0.281956 0.822207 0.430772 0.372036 255 255 255 1.000000
0.097653 0.071972 -0.689813 0.088836 0.324683 -0.941642 128 0 0 1.000000
0.019828 0.722266 -0.339192 0.952660 -0.218691 -0.211220 128 0 0 1.000000
0.319668 0.033029 -0.361527 0.000000 -1.000000 -0.000000 255 255 255 1.000000
0.205392 0.146378 0.611109 -0.137490 -0.075569 -0.987616 255 255 255 1.000000
0.161186 0.110497 0.541406 -0.672457 -0.046665 -0.738663 128 0 0 1.000000
-0.239868 -0.499475 0.425214 -0.480989 -0.382266 0.789001 209 105 29 1.000000
-0.102058 -0.562279 -0.508148 0.252382 0.375029 0.891996 255 255 255 1.000000
0.324089 0.338553 0.523126 -0.625638 -0.259306 -0.735756 255 255 255 1.000000
-0.753190 0.249156 0.152096 0.266765 -0.724530 -0.635526 255 255 255 1.000000
-0.579156 -0.009713 -0.326665 -0.890956 0.120933 -0.437690 209 105 29 1.000000
0.539233 -0.525500 0.090154 0.902717 -0.377218 0.206901 209 105 29 1.000000
-0.337938 0.033029 0.036540 -0.000000 1.000000 0.000000 255 255 255 1.000000
0.192033 0.033029 0.136238 0.000000 -1.000000 -0.000000 255 255 255 1.000000
-0.322333 -0.555291 -0.381730 -0.656134 -0.374870 -0.654951 209 105 29 1.000000
-0.806407 0.236276 0.378444 0.231062 0.806646 -0.543997 128 0 0 1.000000
-0.182579 0.247559 0.498431 0.296482 -0.635412 -0.712987 255 255 255 1.000000
-0.132672 0.209094 -0.538041 -0.576143 0.163398 -0.800850 255 255 255 1.000000
-0.090340 0.483610 0.045767 -0.116767 0.990893 0.067054 128 0 0 1.000000
-0.366590 -0.708525 -0.216374 -0.835762 -0.377714 -0.398539 209 105 29 1.000000
0.102782 0.825222 0.238577 0.109525 0.868566 0.483319 128 0 0 1.000000
-0.224212 -0.397949 -0.533819 -0.414290 -0.405578 -0.814783 209 105 29 1.000000
0.500834 0.291875 0.214359 -0.631134 -0.704511 -0.324553 255 255 255 1.000000
0.167444 0.830427 0.188451 0.370057 0.867903 0.331364 128 0 0 1.000000
-0.123228 0.033029 0.100902 0.000000 -1.000000 -0.000000 255 255 255 1.000000
0.059400 0.456870 0.235549 -0.028931 -0.950205 -0.310280 255 255 255 1.000000
-0.492532 0.223494 -0.273883 -0.723034 0.600666 -0.341207 128 0 0 1.000000
0.051339 -0.805073 0.053772 0.000000 -1.000000 -0.000000 209 105 29 1.000000
-0.469769 0.217970 0.285387 0.181392 0.196577 0.963563 128 0 0 1.000000
-0.568318 -0.264921 -0.211334 0.859354 0.436919 0.265728 255 255 255 1.000000
-0.581851 0.465052 0.371409 0.876055 0.296864 0.380000 128 0 0 1.000000
0.056102 -0.093087 -0.709612 -0.030480 0.088219 0.995635 255 255 255 1.000000
-0.417999 -0.393344 -0.380621 -0.719150 -0.404974 -0.564641 209 105 29 1.000000
-0.787750 0.301689 0.444231 -0.053454 -0.510569 0.858174 255 255 255 1.000000
0.159084 0.726961 0.357217 0.195682 0.723241 0.662292 128 0 0 1.000000
0.550468 0.163231 -0.374242 -0.711426 -0.511425 0.481993 255 255 255 1.000000
0.429132 0.329910 -0.189290 -0.718746 -0.665096 0.202610 128 0 0 1.000000
0.320088 0.552568 0.374999 -0.951605 -0.067067 0.299916 255 255 255 1.000000
0.041030 -0.770817 -0.443663 -0.013896 0.379881 0.924931 255 255 255 1.000000
-0.184840 -0.283648 -0.609792 -0.317594 -0.431336 -0.844442 209 105 29 1.000000
0.554208 0.224962 -0.287418 -0.711776 -0.603286 0.359750 255 255 255 1.000000
-0.600792 -0.254208 0.020300 0.898245 0.434831 -0.063855 255 255 255 1.000000
0.251827 0.033029 0.399952 0.000000 -1.000000 -0.000000 255 255 255 1.000000
0.491865 -0.535672 0.209174 -0.824618 0.375530 -0.423063 255 255 255 1.000000
0.486176 0.339255 -0.163098 0.603320 0.775883 -0.184418 128 0 0 1.000000
-0.089120 -0.805073 -0.217900 -0.000000 1.000000 0.000000 255 255 255 1.000000
-0.083299 0.033029 -0.475734 0.000000 -1.000000 -0.000000 255 255 255 1.000000
0.069453 -0.805073 0.362779 0.000000 -1.000000 -0.000000 209 105 29 1.000000
-0.640578 -0.150725 -0.099066 -0.967053 -0.231471 -0.105974 209 105 29 1.000000
0.606422 -0.221378 0.288112 -0.803687 0.400406 -0.440183 255 255 255 1.000000
-0.851531 0.318258 0.122492 -0.382175 -0.424469 -0.820834 255 255 255 1.000000
0.587369 0.234002 0.131673 -0.756787 -0.617372 -0.214768 255 255 255 1.000000
0.609434 -0.138474 -0.385657 0.829576 -0.202170 -0.520510 209 105 29 1.000000
0.847366 0.412769 -0.271879 -0.880678 0.432826 0.192533 128 0 0 1.000000
0.707995 -0.130908 -0.139409 -0.969331 0.182432 0.164668 255 255 255 1.000000
-0.589366 0.302058 0.121412 -0.220248 -0.143365 0.964851 255 255 255 1.000000
-0.291893 0.268646 0.415493 0.443864 -0.667349 -0.598021 255 255 255 1.000000
0.195736 -0.769879 -0.415788 -0.352075 0.377231 0.856586 255 255 255 1.000000
0.666723 0.040611 0.222411 0.895671 0.273249 0.350868 128 0 0 1.000000
-0.771946 0.167270 0.314259 0.021549 -0.990591 0.135151 128 0 0 1.000000
-0.123679 -0.170785 0.625903 0.227040 0.283256 -0.931782 255 255 255 1.000000
-0.245305 0.403822 0.231136 -0.362153 0.871432 0.330834 128 0 0 1.000000
0.417351 -0.174230 -0.577091 0.544678 -0.290872 -0.786587 209 105 29 1.000000
-0.360002 -0.594587 -0.319898 0.743429 0.373414 0.554865 255 255 255 1.000000
-0.879994 0.206847 0.338259 -0.494651 -0.824755 0.274043 128 0 0 1.000000
0.168007 0.421919 0.295036 0.168574 0.898233 0.405907 128 0 0 1.000000
0.487618 0.033029 -0.526193 0.000000 -1.000000 -0.000000 255 255 255 1.000000
0.623664 -0.080308 -0.376171 -0.857430 0.056189 0.511524 255 255 255 1.000000
0.578250 -0.340259 -0.276495 0.824105 -0.418103 -0.382154 209 105 29 1.000000
-0.359880 -0.662687 0.214998 -0.791828 -0.377440 0.480154 209 105 29 1.000000
-0.844386 0.398224 0.099005 0.262484 0.069851 0.962405 128 0 0 1.000000
0.158627 -0.805073 -0.395423 0.000000 -1.000000 -0.000000 209 105 29 1.000000
-0.346289 -0.474189 0.354045 -0.652964 -0.388308 0.650273 209 105 29 1.000000
0.137052 0.439460 0.263820 0.127103 0.925184 0.357603 128 0 0 1.000000
-0.319031 0.138702 -0.553134 -0.489524 0.476807 -0.730083 128 0 0 1.000000
0.775003 0.412754 -0.350797 0.334814 -0.323889 -0.884870 128 0 0 1.000000
0.244261 -0.805073 0.320735 0.000000 -1.000000 -0.000000 209 105 29 1.000000
-0.402123 -0.237651 -0.498877 0.613292 0.426499 0.664809 255 255 255 1.000000
-0.035304 -0.342310 0.570251 -0.106849 -0.416561 0.902807 209 105 29 1.000000
-0.400248 -0.132511 0.499404 0.627617 0.186619 -0.755824 255 255 255 1.000000
0.257659 0.033029 0.174674 0.000000 -1.000000 -0.000000 255 255 255 1.000000
-0.443644 0.033029 0.309884 0.000000 -1.000000 -0.000000 255 255 255 1.000000
-0.329744 -0.638276 0.277792 -0.712941 -0.375373 0.592292 209 105 29 1.000000
-0.037018 0.460063 -0.263693 0.085466 -0.955931 0.280877 255 255 255 1.000000
-0.352864 -0.481966 -0.392826 -0.669253 -0.386416 -0.634651 209 105 29 1.000000
0.080834 -0.186244 0.639841 -0.065520 0.321450 -0.944657 255 255 255 1.000000
-0.001312 0.225953 -0.604765 0.049831 -0.604791 0.794824 255 255 255 1.000000
-0.767945 0.307223 0.073579 -0.100039 0.403431 0.909525 255 255 255 1.000000
-0.235275 -0.805073 0.171497 -0.000000 1.000000 0.000000 255 255 255 1.000000
-0.579953 0.033029 -0.202477 0.000000 -1.000000 -0.000000 255 255 255 1.000000
-0.682203 0.413564 0.484079 0.420723 0.064869 0.904867 128 0 0 1.000000
0.047007 0.033029 0.086296 0.000000 -1.000000 -0.000000 255 255 255 1.000000
0.085038 0.783978 0.058255 -0.009769 0.966315 0.257176 255 255 255 1.000000
0.161887 0.857119 0.016320 -0.761556 -0.619138 0.191572 255 255 255 1.000000
0.283271 0.570186 0.429647 0.575959 0.506869 0.641370 128 0 0 1.000000
0.477999 0.224927 -0.403557 0.606661 0.602613 -0.518479 128 0 0 1.000000
-0.031623 0.582817 -0.445994 0.914537 -0.369283 0.165083 128 0 0 1.000000
-0.445348 0.239960 -0.330923 0.657535 -0.626248 0.418881 255 255 255 1.000000
-0.287631 -0.057217 0.580818 0.470169 -0.001816 -0.882575 255 255 255 1.000000
-0.634286 0.396381 0.457033 0.596371 0.032853 0.802037 128 0 0 1.000000
0.651909 0.407476 -0.388090 0.417428 0.483116 -0.769645 128 0 0 1.000000
0.576027 0.188923 -0.123567 0.961718 0.240618 0.131152 128 0 0 1.000000
0.332559 0.033029 -0.426902 -0.000000 1.000000 0.000000 255 255 255 1.000000
-0.288334 0.357702 -0.455460 0.279897 0.255437 -0.925424 255 255 255 1.000000
-0.669305 0.548076 0.335646 0.644507 0.714796 0.271436 255 255 255 1.000000
-0.344295 0.213683 0.427296 0.520871 -0.586018 -0.620706 255 255 255 1.000000
-0.629882 -0.166826 -0.134490 -0.949456 -0.272291 -0.156179 209 105 29 1.000000
0.292240 0.420356 0.208230 -0.326694 -0.897187 -0.297198 255 255 255 1.000000
0.039605 0.033029 -0.260625 -0.000000 1.000000 0.000000 255 255 255 1.000000
-0.493975 -0.439944 0.133169 0.879914 0.396236 -0.262198 255 255 255 1.000000
-0.101859 0.033029 -0.543777 0.000000 -1.000000 -0.000000 255 255 255 1.000000
-0.646228 0.470035 0.158166 0.669352 0.387971 -0.633598 255 255 255 1.000000
-0.308947 0.298905 -0.528138 0.795662 -0.207959 0.568924 255 255 255 1.000000
0.279052 0.033029 -0.060079 0.000000 -1.000000 -0.000000 255 255 255 1.000000
-0.350421 -0.656036 -0.287164 0.766131 0.376332 0.520978 255 255 255 1.000000
0.497156 0.148518 0.402647 -0.639147 -0.491316 -0.591692 255 255 255 1.000000
0.525541 0.233460 -0.156381 -0.742055 -0.641452 0.194664 128 0 0 1.000000
0.208686 0.033029 -0.165812 0.000000 -1.000000 -0.000000 255 255 255 1.000000
-0.120121 -0.338690 0.551012 0.236628 0.419994 -0.876135 255 255 255 1.000000
0.279324 0.138432 0.480658 -0.217240 -0.077071 -0.973071 128 0 0 1.000000
0.182186 0.203041 0.514154 0.546995 0.145185 0.824450 255 255 255 1.000000
0.557160 -0.253377 0.344349 0.735490 -0.433501 0.520703 209 105 29 1.000000
0.332086 -0.057137 0.596106 0.431354 0.002012 0.902180 209 105 29 1.000000
0.365197 -0.119726 -0.621187 -0.478545 0.155101 0.864256 255 255 255 1.000000
0.169128 -0.350207 -0.601227 -0.206548 0.417176 0.885044 255 255 255 1.000000
0.575724 -0.021709 0.401683 -0.781733 -0.090437 -0.617021 255 255 255 1.000000
0.331796 0.377613 -0.322712 -0.389916 -0.833361 0.391758 255 255 255 1.000000
0.515469 -0.237390 0.405487 -0.673530 0.426282 -0.603855 255 255 255 1.000000
0.191209 0.033029 -0.656798 0.000000 -1.000000 -0.000000 255 255 255 1.000000
-0.332171 -0.714446 -0.271844 -0.768280 -0.377876 -0.516677 209 105 29 1.000000
0.030316 0.457171 -0.284676 0.005738 -0.951040 0.309014 255 255 255 1.000000
0.224405 -0.805073 0.098937 -0.000000 1.000000 0.000000 255 255 255 1.000000
-0.401726 0.280183 0.287772 -0.592186 0.685210 0.424032 128 0 0 1.000000
-0.758253 0.253684 0.408014 0.011189 0.695160 -0.718768 128 0 0 1.000000
0.786181 0.562067 -0.205207 0.209867 0.847695 0.487206 128 0 0 1.000000
0.006579 0.359537 0.421054 -0.037410 0.805562 0.591329 128 0 0 1.000000
-0.398426 -0.412099 0.339387 0.700666 0.401457 -0.589830 255 255 255 1.000000
0.669712 0.138183 -0.092061 -0.875157 -0.474915 0.092496 255 255 255 1.000000
-0.584861 0.080716 0.215414 -0.874585 0.346383 0.339293 128 0 0 1.000000
-0.278321 0.316938 0.364472 -0.421173 0.740680 0.523457 128 0 0 1.000000
-0.192074 0.221712 -0.504317 -0.361276 0.182883 -0.914349 255 255 255 1.000000
-0.819531 0.180116 0.335594 -0.270103 -0.924384 0.269365 128 0 0 1.000000
0.459137 0.033029 0.059587 -0.000000 1.000000 0.000000 255 255 255 1.000000
-0.092432 -0.491101 -0.540364 -0.221145 -0.384259 -0.896348 209 105 29 1.000000
0.265971 -0.207749 0.593429 -0.324361 0.374018 -0.868850 255 255 255 1.000000
0.124349 -0.238967 0.617646 -0.124521 0.424661 -0.896748 255 255 255 1.000000
0.374348 -0.103550 0.568156 -0.493376 0.114584 -0.862236 255 255 255 1.000000
0.746738 0.347981 -0.072862 0.630226 -0.049201 0.774851 128 0 0 1.000000
0.237720 0.711714 0.330020 0.504065 0.685889 0.524858 128 0 0 1.000000
-0.236430 -0.182283 -0.638208 0.384942 0.310303 0.869213 255 255 255 1.000000
-0.339051 -0.152720 0.538383 0.537588 0.237427 -0.809090 255 255 255 1.000000
-0.553407 -0.307826 0.138266 -0.871269 -0.427212 0.241620 209 105 29 1.000000
-0.368076 0.371096 -0.184358 0.530600 -0.821238 0.209838 255 255 255 1.000000
-0.262458 0.078562 -0.500891 0.114321 -0.063101 0.991438 128 0 0 1.000000
-0.170941 0.538263 -0.377271 0.210977 -0.556756 0.803437 128 0 0 1.000000
-0.453519 0.279223 0.200643 0.662463 -0.683739 -0.306013 255 255 255 1.000000
0.702204 0.033029 -0.124711 0.000000 -1.000000 -0.000000 255 255 255 1.000000
-0.127765 0.461406 0.157660 -0.190052 0.958041 0.214563 128 0 0 1.000000
0.652378 -0.206089 -0.262582 -0.867088 0.369955 0.333605 255 255 255 1.000000
-0.510896 0.033029 0.143071 0.000000 -1.000000 -0.000000 255 255 255 1.000000
0.011095 -0.633958 0.448724 -0.047080 -0.376287 0.925306 209 105 29 1.000000
-0.016997 0.050455 0.646341 -0.074124 0.286362 0.955250 128 0 0 1.000000
-0.280937 0.492104 -0.407954 -0.594825 -0.256317 0.761895 128 0 0 1.000000
0.501420 0.033029 0.062673 0.000000 -1.000000 -0.000000 255 255 255 1.000000
-0.608759 -0.001829 -0.258629 -0.930774 0.140350 -0.337582 209 105 29 1.000000
0.642345 0.139868 0.158677 -0.840257 -0.478947 -0.254123 255 255 255 1.000000
0.230914 -0.326263 -0.596249 -0.294731 0.421955 0.857372 255 255 255 1.000000
-0.161025 -0.805073 -0.129982 -0.000000 1.000000 0.000000 255 255 255 1.000000
-0.724388 0.312796 0.483453 -0.192323 0.349713 -0.916904 255 255 255 1.000000
-0.490267 0.181679 -0.335796 0.725138 -0.538622 0.429024 255 255 255 1.000000
-0.277542 0.033029 -0.321892 -0.000000 1.000000 0.000000 255 255 255 1.000000
0.525574 0.323802 0.029086 0.657215 0.750208 0.072504 128 0 0 1.000000
0.649649 0.148550 -0.163091 0.849849 0.491191 -0.191018 128 0 0 1.000000
-0.306656 -0.125864 -0.613149 0.495223 0.170590 0.851853 255 255 255 1.000000
0.526177 -0.508162 -0.215068 0.863124 -0.378645 -0.334134 209 105 29 1.000000
-0.576028 0.379430 0.225932 -0.848936 -0.477451 0.226600 128 0 0 1.000000
-0.049043 -0.697658 -0.466529 0.173312 0.377343 0.909711 255 255 255 1.000000
-0.004564 0.489260 -0.031641 0.009112 0.999958 0.001381 128 0 0 1.000000
0.349442 -0.375861 -0.513272 -0.493125 0.410839 0.766837 255 255 255 1.000000
-0.676491 0.513839 0.397116 0.599687 0.538669 0.591787 255 255 255 1.000000
0.397133 0.357235 0.246120 0.479504 0.800682 0.359143 128 0 0 1.000000
-0.165669 0.323299 0.425433 0.269256 -0.750013 -0.604137 255 255 255 1.000000
0.620361 -0.202849 -0.329994 -0.826319 0.363203 0.430441 255 255 255 1.000000
0.081780 -0.805073 0.216948 -0.000000 1.000000 0.000000 255 255 255 1.000000
0.031568 0.033029 0.340308 -0.000000 1.000000 0.000000 255 255 255 1.000000
-0.684911 0.445708 0.118077 -0.459372 -0.276565 0.844091 128 0 0 1.000000
-0.072569 -0.327504 -0.619313 -0.161054 -0.421272 -0.892520 209 105 29 1.000000
-0.795844 0.226238 0.130692 0.035886 0.741151 0.670379 255 255 255 1.000000
-0.259111 0.364634 0.302165 -0.389135 0.813161 0.432832 128 0 0 1.000000
0.432903 -0.695765 0.183522 0.819930 -0.378080 0.429848 209 105 29 1.000000
-0.769265 0.257797 0.456465 0.015160 0.593438 -0.804737 255 255 255 1.000000
0.238940 0.419704 0.259079 0.259112 0.895611 0.361582 128 0 0 1.000000
-0.017363 0.790090 0.132238 0.452983 0.885789 0.100913 255 255 255 1.000000
0.006748 -0.805073 0.020410 0.000000 -1.000000 -0.000000 209 105 29 1.000000
-0.174208 0.033029 0.578193 0.000000 -1.000000 -0.000000 255 255 255 1.000000
-0.293178 -0.612446 0.328541 -0.630251 -0.376091 0.679219 209 105 29 1.000000
-0.280621 -0.751736 -0.312062 -0.684352 -0.379360 -0.622694 209 105 29 1.000000
0.114996 -0.805073 -0.278598 0.000000 -1.000000 -0.000000 209 105 29 1.000000
-0.138670 0.208935 -0.590833 0.238870 -0.580050 0.778770 255 255 255 1.000000
-0.569572 0.033029 0.159945 -0.000000 1.000000 0.000000 255 255 255 1.000000
0.242804 0.654478 0.270556 -0.166348 0.634429 0.754869 255 255 255 1.000000
0.556044 0.413271 -0.141539 0.849617 0.202055 -0.487160 128 0 0 1.000000
0.394619 0.240492 0.419821 0.490499 0.625184 0.607088 128 0 0 1.000000
0.187356 -0.417946 -0.565542 -0.249170 0.401413 0.881353 255 255 255 1.000000
-0.308122 0.033029 0.366160 0.000000 -1.000000 -0.000000 255 255 255 1.000000
0.188695 0.160941 0.578225 -0.212324 -0.509012 -0.834161 255 255 255 1.000000
-0.819551 0.216239 0.220404 -0.340505 -0.893029 -0.294203 255 255 255 1.000000
-0.235738 -0.722344 0.323434 0.568473 0.376599 -0.731445 255 255 255 1.000000
-0.428296 -0.592192 -0.190666 -0.872962 -0.374558 -0.312481 209 105 29 1.000000
-0.420001 -0.259221 0.416114 -0.645433 -0.438175 0.625635 209 105 29 1.000000
0.315492 -0.541634 0.402318 0.507909 -0.375100 0.775454 209 105 29 1.000000
0.376453 -0.805073 -0.192857 0.000000 -1.000000 -0.000000 209 105 29 1.000000
0.186552 0.187982 -0.611802 0.209098 0.548396 -0.809654 128 0 0 1.000000
-0.190420 0.435148 -0.247194 0.281396 -0.918607 0.277448 255 255 255 1.000000
-0.264105 0.033029 -0.097639 0.000000 -1.000000 -0.000000 255 255 255 1.000000
-0.027512 -0.700666 0.420588 -0.129111 -0.376179 0.917507 209 105 29 1.000000
-0.456854 0.033029 0.382979 0.000000 -1.000000 -0.000000 255 255 255 1.000000
-0.193507 0.651336 -0.411804 -0.428285 0.623847 -0.653748 128 0 0 1.000000
-0.225247 -0.795042 0.315916 -0.583776 -0.273772 0.764365 209 105 29 1.000000
-0.173120 0.460346 -0.160943 -0.244501 0.956275 -0.160490 128 0 0 1.000000
0.092095 0.842632 0.204681 -0.092172 -0.899006 -0.428126 255 255 255 1.000000
0.650189 0.504041 -0.313539 -0.615492 0.529326 -0.583937 128 0 0 1.000000
0.403215 0.393569 0.127786 -0.478360 -0.855410 -0.198611 255 255 255 1.000000
-0.517765 0.112099 0.240770 0.830110 0.221041 -0.511916 255 255 255 1.000000
0.031029 -0.316950 0.581544 0.006854 0.425058 -0.905140 255 255 255 1.000000
0.192692 0.033029 -0.277135 -0.000000 1.000000 0.000000 255 255 255 1.000000
0.191337 -0.619718 0.429184 -0.300752 0.375778 -0.876550 255 255 255 1.000000
-0.503412 -0.310210 -0.311354 0.798532 0.426501 0.424787 255 255 255 1.000000
-0.124192 0.033029 -0.121597 -0.000000 1.000000 0.000000 255 255 255 1.000000
0.159986 0.033029 0.036795 -0.000000 1.000000 0.000000 255 255 255 1.000000
-0.346101 -0.795065 0.165821 -0.858590 -0.276922 0.431436 209 105 29 1.000000
-0.096069 0.575737 -0.380774 0.413275 -0.606563 0.679179 128 0 0 1.000000
-0.644530 -0.127137 0.048975 -0.979143 -0.172890 0.106719 209 105 29 1.000000
0.346085 0.262685 0.429988 -0.423602 -0.660242 -0.620195 255 255 255 1.000000
-0.325787 -0.739891 0.211864 -0.773537 -0.378912 0.508003 209 105 29 1.000000
-0.365206 0.353624 -0.238289 0.532203 -0.797500 0.284172 255 255 255 1.000000
-0.013496 0.814255 0.224834 0.647182 -0.542615 -0.535467 255 255 255 1.000000
-0.294577 0.054147 -0.501153 0.119028 0.047087 -0.991774 255 255 255 1.000000
-0.327056 -0.608294 -0.346965 -0.692370 -0.375698 -0.616015 209 105 29 1.000000
-0.375920 -0.531180 0.291559 0.734836 0.373765 -0.565964 255 255 255 1.000000
0.434341 -0.725397 0.156970 0.842378 -0.377674 0.384398 209 105 29 1.000000
-0.248943 -0.805073 -0.303683 0.000000 -1.000000 -0.000000 209 105 29 1.000000
0.131042 0.033029 -0.376432 0.000000 -1.000000 -0.000000 255 255 255 1.000000
-0.043186 0.706693 -0.401504 -0.123462 -0.654436 0.745970 255 255 255 1.000000
0.574607 -0.393678 -0.220812 -0.859234 0.406031 0.311217 255 255 255 1.000000
-0.649243 0.466071 0.404253 0.649172 0.374383 0.662128 255 255 255 1.000000
0.048260 -0.371861 -0.606735 -0.021710 0.412107 0.910877 255 255 255 1.000000
-0.461136 0.183323 0.333316 -0.682598 0.539400 0.493060 128 0 0 1.000000
0.463788 -0.176388 -0.541167 -0.610339 0.296200 0.734678 255 255 255 1.000000
-0.373064 0.066722 0.508596 -0.577522 0.310561 0.754997 128 0 0 1.000000
0.432334 0.388355 0.051220 -0.518730 -0.849076 -0.099944 255 255 255 1.000000
0.201816 0.033029 0.480599 -0.000000 1.000000 0.000000 255 255 255 1.000000
-0.410814 0.257324 -0.361821 -0.606339 0.650082 -0.457981 128 0 0 1.000000
-0.266319 -0.009094 0.589296 0.437323 -0.122482 -0.890925 255 255 255 1.000000
-0.428516 -0.632528 0.077260 -0.904805 -0.376350 0.199217 209 105 29 1.000000
-0.159948 0.379039 -0.395240 0.256505 -0.835329 0.486242 255 255 255 1.000000
-0.198267 -0.136491 -0.664313 0.336333 0.196639 0.920985 255 255 255 1.000000
-0.144739 -0.124452 -0.681311 -0.260721 -0.167033 -0.950855 209 105 29 1.000000
0.592644 -0.263252 0.272644 0.793036 -0.437494 0.423901 209 105 29 1.000000
-0.321016 -0.805073 0.094640 -0.000000 1.000000 0.000000 255 255 255 1.000000
0.269536 0.430196 0.522041 -0.447042 -0.363835 -0.817177 255 255 255 1.000000
0.680382 0.033029 0.034009 0.000000 -1.000000 -0.000000 255 255 255 1.000000
0.649023 0.176720 0.016750 0.846038 0.530007 0.057554 128 0 0 1.000000
0.199141 -0.805073 -0.241744 -0.000000 1.000000 0.000000 255 255 255 1.000000
-0.760027 0.346754 0.497221 -0.033392 -0.168062 0.985211 128 0 0 1.000000
-0.259432 -0.652571 0.339390 -0.582277 -0.375577 0.721038 209 105 29 1.000000
-0.848979 0.249267 0.123973 -0.348788 -0.635272 -0.689040 128 0 0 1.000000
0.299411 0.204628 -0.558770 -0.363817 -0.573094 0.734303 255 255 255 1.000000
-0.638036 0.319289 0.142584 -0.286267 0.025372 0.957814 128 0 0 1.000000
-0.437597 0.033029 0.021708 -0.000000 1.000000 0.000000 255 255 255 1.000000
0.017427 -0.740380 -0.455834 -0.037377 -0.379169 -0.924572 209 105 29 1.000000
0.496021 0.033029 0.413634 0.000000 -1.000000 -0.000000 255 255 255 1.000000
0.014051 0.026745 0.652112 -0.030522 0.182787 0.982679 209 105 29 1.000000
-0.198785 0.033029 -0.643294 -0.000000 1.000000 0.000000 255 255 255 1.000000
0.252670 0.009000 0.501540 -0.000739 -1.000000 -0.000182 255 255 255 1.000000
-0.197830 0.707991 -0.347123 0.509523 -0.683488 0.522715 255 255 255 1.000000
0.085546 0.475410 -0.210034 0.054066 0.978423 -0.199413 128 0 0 1.000000
-0.145506 0.119312 -0.542771 0.546052 -0.083309 0.833599 128 0 0 1.000000
-0.158446 -0.311844 -0.603339 -0.286760 -0.425730 -0.858209 209 105 29 1.000000
-0.098300 0.477733 -0.143608 0.139017 -0.982444 0.124407 255 255 255 1.000000
0.111355 -0.292532 -0.643279 -0.110646 0.427939 0.897009 255 255 255 1.000000
-0.069700 0.486740 -0.074583 0.082940 -0.995757 0.039868 255 255 255 1.000000
-0.515327 0.243684 -0.156485 0.753461 -0.632336 0.180132 255 255 255 1.000000
0.576702 -0.411302 -0.183946 -0.878107 0.402960 0.257974 255 255 255 1.000000
0.251243 -0.532990 -0.493312 -0.388356 0.374891 0.841806 255 255 255 1.000000
0.690793 -0.188375 0.093658 -0.930149 0.326518 -0.167953 255 255 255 1.000000
0.651940 0.160460 0.077621 0.850382 0.506790 0.141476 128 0 0 1.000000
0.365033 0.154827 0.486936 -0.767894 0.016721 0.640359 255 255 255 1.000000
0.325219 -0.562180 -0.437708 -0.533169 0.373632 0.759032 255 255 255 1.000000
-0.110630 0.033029 0.373637 0.000000 -1.000000 -0.000000 255 255 255 1.000000
-0.326986 -0.327124 0.461278 0.541911 0.420158 -0.727874 255 255 255 1.000000
-0.079849 -0.057828 0.654241 0.166866 -0.000283 -0.985979 255 255 255 1.000000
-0.028906 0.033029 -0.651103 -0.000000 1.000000 0.000000 255 255 255 1.000000
0.415494 0.033029 0.402265 0.000000 -1.000000 -0.000000 255 255 255 1.000000
0.220340 0.033029 0.328068 -0.000000 1.000000 0.000000 255 255 255 1.000000
0.101552 -0.805073 0.017116 0.000000 -1.000000 -0.000000 209 105 29 1.000000
0.040834 0.756727 -0.273188 0.846373 -0.532567 -0.005016 128 0 0 1.000000
-0.159969 0.140674 0.578771 0.269824 -0.479778 -0.834870 255 255 255 1.000000
0.636391 -0.327668 -0.093482 -0.901464 0.420532 0.102542 255 255 255 1.000000
-0.065679 0.886009 -0.039260 -0.305086 0.949225 -0.076779 128 0 0 1.000000
-0.596790 -0.164307 -0.263046 -0.902193 -0.265784 -0.339717 209 105 29 1.000000
0.396198 -0.618020 -0.342942 -0.695261 0.375658 0.612775 255 255 255 1.000000
0.282811 -0.732703 0.332915 -0.526649 0.378230 -0.761304 255 255 255 1.000000
-0.613681 -0.219323 -0.122700 -0.908557 -0.394751 -0.136734 209 105 29 1.000000
0.333957 0.008930 0.546400 0.000739 1.000000 0.000182 255 255 255 1.000000
-0.167839 0.463851 0.094624 -0.234607 0.962022 0.139547 128 0 0 1.000000
0.080116 0.133695 -0.662617 -0.062251 -0.469295 0.880844 255 255 255 1.000000
0.607892 0.467041 -0.072528 -0.309555 0.430483 0.847856 128 0 0 1.000000
-0.492330 0.033029 0.029626 -0.000000 1.000000 0.000000 255 255 255 1.000000
0.193134 0.033029 0.394093 0.000000 -1.000000 -0.000000 255 255 255 1.000000
0.438339 -0.145041 0.523001 0.578483 -0.217508 0.786160 209 105 29 1.000000
0.477333 -0.088928 -0.551089 0.641531 -0.077546 -0.763167 209 105 29 1.000000
0.330260 -0.142282 0.586693 0.424989 -0.211170 0.880223 209 105 29 1.000000
0.109378 0.393614 -0.414284 0.096454 0.856732 -0.506663 128 0 0 1.000000
-0.509690 0.272767 0.250365 -0.737682 -0.421295 -0.527576 128 0 0 1.000000
0.185191 0.725084 0.185736 0.078971 -0.801502 -0.592755 128 0 0 1.000000
0.405530 0.352599 -0.292356 -0.492093 -0.794732 0.355311 255 255 255 1.000000
-0.734227 0.206507 0.334981 -0.179530 0.942070 -0.283324 128 0 0 1.000000
0.278050 -0.805073 -0.060760 -0.000000 1.000000 0.000000 255 255 255 1.000000
-0.414549 -0.503467 -0.297709 -0.790093 -0.381347 -0.479924 209 105 29 1.000000
0.362444 0.033029 0.128458 -0.000000 1.000000 0.000000 255 255 255 1.000000
-0.565306 -0.330450 -0.043764 0.906281 0.421698 0.028725 255 255 255 1.000000
0.443240 0.061745 0.510286 0.578539 0.299203 0.758796 128 0 0 1.000000
0.457773 -0.516483 -0.333326 0.748108 -0.377228 -0.545925 209 105 29 1.000000
-0.440004 -0.413186 0.278881 0.771600 0.402313 -0.492725 255 255 255 1.000000
-0.247639 0.419183 0.183156 0.359755 -0.894598 -0.265085 255 255 255 1.000000
-0.539768 -0.336292 -0.188893 -0.872473 -0.420486 -0.248961 209 105 29 1.000000
0.431801 -0.064313 0.537663 0.576169 -0.015947 0.817175 209 105 29 1.000000
-0.245268 0.493211 -0.495976 -0.525999 0.435856 -0.730311 128 0 0 1.000000
0.777186 0.344143 -0.292386 -0.481993 0.769852 0.418342 128 0 0 1.000000
0.033927 0.740571 0.336553 -0.582224 0.481373 0.655206 128 0 0 1.000000
0.081745 0.033029 -0.684716 0.000000 -1.000000 -0.000000 255 255 255 1.000000
-0.067812 -0.623946 -0.492017 -0.198868 -0.376135 -0.904972 209 105 29 1.000000
-0.387810 -0.783398 0.035573 -0.851827 0.509315 0.122431 209 105 29 1.000000
0.048966 0.485016 -0.160921 -0.012021 -0.992421 0.122292 255 255 255 1.000000
-0.408002 0.353011 -0.125744 0.589397 -0.796562 0.134539 255 255 255 1.000000
0.097527 0.887711 -0.030168 0.334072 0.942298 -0.021673 128 0 0 1.000000
-0.362256 0.033029 -0.504906 -0.000000 1.000000 0.000000 255 255 255 1.000000
0.109048 -0.805073 0.298104 0.000000 -1.000000 -0.000000 209 105 29 1.000000
0.502628 -0.047686 0.477478 0.680893 0.025743 0.731930 209 105 29 1.000000
-0.420839 -0.519554 0.223835 0.812975 0.378253 -0.442714 255 255 255 1.000000
0.115682 -0.805073 -0.198285 -0.000000 1.000000 0.000000 255 255 255 1.000000
-0.292756 -0.706986 -0.325419 -0.682026 -0.378327 -0.625866 209 105 29 1.000000
-0.683167 0.301524 0.135471 0.215648 -0.347043 -0.912720 255 255 255 1.000000
-0.288506 0.217636 -0.514217 -0.444199 0.592599 -0.671947 128 0 0 1.000000
0.358294 0.033029 -0.169034 0.000000 -1.000000 -0.000000 255 255 255 1.000000
-0.564947 -0.109538 0.301080 -0.871146 -0.129555 0.473624 209 105 29 1.000000
-0.430293 -0.604608 0.113082 0.888581 0.376001 -0.262769 255 255 255 1.000000
0.069970 0.601847 0.410758 -0.860936 -0.439995 -0.255329 128 0 0 1.000000
0.436566 -0.286413 -0.501103 -0.581602 0.431089 0.689857 255 255 255 1.000000
-0.129534 -0.257938 0.587558 -0.233492 -0.437566 0.868342 209 105 29 1.000000
-0.256270 0.364137 -0.551455 -0.509740 0.302256 -0.805485 128 0 0 1.000000
-0.558385 -0.179760 -0.331491 0.846111 0.305417 0.436826 255 255 255 1.000000
-0.249352 0.647424 -0.353768 -0.843315 0.477307 -0.246976 128 0 0 1.000000
-0.082722 0.033029 -0.150167 -0.000000 1.000000 0.000000 255 255 255 1.000000
0.442329 -0.640436 0.211738 0.800492 -0.376933 0.465978 209 105 29 1.000000
0.593305 0.131281 -0.335720 0.772757 0.466779 -0.430075 128 0 0 1.000000
-0.017586 -0.805073 0.094896 -0.000000 1.000000 0.000000 255 255 255 1.000000
-0.725534 0.270829 0.461331 0.160755 -0.519842 0.839000 128 0 0 1.000000
-0.263201 0.033029 -0.200471 0.000000 -1.000000 -0.000000 255 255 255 1.000000
0.569086 -0.272568 -0.354638 -0.765494 0.435338 0.473813 255 255 255 1.000000
-0.649544 0.289765 0.438626 0.598607 -0.471060 0.647899 128 0 0 1.000000
0.327468 0.505287 0.426949 -0.867616 -0.351254 -0.351941 255 255 255 1.000000
0.539042 -0.466685 0.183131 -0.852070 0.387396 -0.351995 255 255 255 1.000000
0.178730 0.033029 0.179026 0.000000 -1.000000 -0.000000 255 255 255 1.000000
-0.475779 -0.032170 0.433366 0.742774 -0.064618 -0.666417 255 255 255 1.000000
-0.479890 0.257960 0.279239 -0.635901 -0.263674 -0.725331 255 255 255 1.000000
-0.340379 0.269036 0.369258 -0.511829 0.670505 0.537078 128 0 0 1.000000
-0.066315 0.296747 0.484036 0.136895 -0.711678 -0.689039 255 255 255 1.000000
-0.299434 -0.531303 -0.418395 0.600176 0.375201 0.706409 255 255 255 1.000000
-0.116437 0.046803 -0.680330 0.216163 -0.282499 0.934595 255 255 255 1.000000
0.210613 0.784258 0.240640 0.500410 0.780744 0.374204 128 0 0 1.000000
-0.499490 -0.159392 -0.441612 -0.763144 -0.253078 -0.594611 209 105 29 1.000000
-0.640966 0.016050 -0.124156 -0.975281 0.168423 -0.143038 209 105 29 1.000000
-0.681783 0.486429 0.098195 -0.450521 -0.374505 0.810417 255 255 255 1.000000
0.585451 -0.436395 -0.111018 -0.907574 0.395088 0.142179 255 255 255 1.000000
0.354136 0.235855 -0.501971 -0.436465 -0.619377 0.652588 255 255 255 1.000000
0.655226 0.300216 -0.122628 0.338196 0.706250 -0.621960 128 0 0 1.000000
0.596976 -0.336535 0.187906 -0.849222 0.418588 -0.321879 255 255 255 1.000000
-0.389102 0.215685 -0.430830 -0.583138 0.590250 -0.558171 128 0 0 1.000000
0.400838 -0.471505 0.371421 0.624106 -0.388594 0.677854 209 105 29 1.000000
-0.610078 0.197161 0.230576 -0.258632 -0.964459 0.054111 255 255 255 1.000000
-0.408895 0.342440 -0.174792 -0.592628 0.780169 -0.200323 128 0 0 1.000000
-0.252681 0.441307 -0.113122 -0.355202 0.928330 -0.109705 128 0 0 1.000000
-0.314432 0.366004 -0.294206 -0.460962 0.813289 -0.355069 128 0 0 1.000000
-0.752323 0.370340 0.057717 0.135118 -0.122257 -0.983258 128 0 0 1.000000
0.644050 0.117446 -0.247818 0.841834 0.443388 -0.307769 128 0 0 1.000000
-0.106872 0.858386 -0.136577 0.364594 -0.906410 0.213289 255 255 255 1.000000
-0.309070 -0.782223 -0.275823 0.653788 -0.586393 0.478229 255 255 255 1.000000
0.457336 -0.801002 -0.006976 0.735341 -0.677246 0.024748 209 105 29 1.000000
0.094901 0.033029 -0.124504 -0.000000 1.000000 0.000000 255 255 255 1.000000
0.026297 0.089522 -0.683269 0.012337 -0.369878 0.928999 255 255 255 1.000000
-0.051749 0.033029 0.256385 -0.000000 1.000000 0.000000 255 255 255 1.000000
-0.004914 0.893502 -0.068759 0.124814 -0.978977 0.161324 255 255 255 1.000000
0.312482 0.033029 0.365024 -0.000000 1.000000 0.000000 255 255 255 1.000000
0.440910 0.374201 0.105336 -0.534234 -0.827662 -0.171959 255 255 255 1.000000
0.482524 -0.698844 -0.067805 0.922036 -0.377050 -0.087654 209 105 29 1.000000
-0.021761 -0.805073 -0.438119 -0.000000 1.000000 0.000000 255 255 255 1.000000
0.480579 -0.643664 -0.176863 -0.876768 0.376391 0.299345 255 255 255 1.000000
-0.469846 -0.394219 0.244141 -0.806545 -0.406754 0.428994 209 105 29 1.000000
-0.017469 -0.516240 0.495788 0.093177 0.377155 -0.921451 255 255 255 1.000000
0.382785 0.302249 0.352145 -0.469864 -0.720317 -0.510266 255 255 255 1.000000
0.574020 0.044714 0.386764 0.763278 0.277972 0.583214 128 0 0 1.000000
-0.415289 -0.174515 -0.520795 0.643224 0.292216 0.707724 255 255 255 1.000000
-0.645817 0.004543 0.047996 -0.982420 0.154144 0.105316 209 105 29 1.000000
0.133706 -0.805073 0.164367 0.000000 -1.000000 -0.000000 209 105 29 1.000000
0.562988 -0.169370 -0.445573 0.751322 -0.277990 -0.598528 209 105 29 1.000000
0.370163 0.419962 0.067630 -0.426326 -0.896747 -0.118709 255 255 255 1.000000
0.132374 0.845878 0.177776 0.259586 0.903588 0.340799 128 0 0 1.000000
-0.041622 -0.805073 0.214469 0.000000 -1.000000 -0.000000 209 105 29 1.000000
0.262724 -0.736897 -0.392857 -0.486861 0.379090 0.786929 255 255 255 1.000000
-0.554234 0.296786 0.337112 0.671400 -0.038663 0.740086 128 0 0 1.000000
0.247224 0.504980 0.495238 0.417431 0.446978 0.791177 128 0 0 1.000000
-0.446090 0.033029 -0.193171 -0.000000 1.000000 0.000000 255 255 255 1.000000
-0.483864 -0.350468 0.258709 0.797953 0.417102 -0.435083 255 255 255 1.000000
0.637675 -0.163783 0.274517 0.863501 -0.265372 0.428887 209 105 29 1.000000
0.454423 0.214956 0.386454 0.576539 0.589220 0.566059 128 0 0 1.000000
0.182629 -0.797214 0.374938 -0.316092 0.420016 -0.850689 255 255 255 1.000000
-0.638508 0.550158 0.189950 0.641320 0.649838 -0.407946 128 0 0 1.000000
0.190638 0.408175 0.557528 0.150491 0.336026 0.929752 128 0 0 1.000000
0.073155 0.033029 -0.193397 0.000000 -1.000000 -0.000000 255 255 255 1.000000
0.326568 -0.805073 -0.225042 0.000000 -1.000000 -0.000000 209 105 29 1.000000
0.226494 0.179441 0.557008 -0.263953 -0.534695 -0.802764 255 255 255 1.000000
0.475000 0.339094 0.155909 -0.586487 -0.773204 -0.241223 255 255 255 1.000000
-0.069808 0.876822 -0.103653 0.252569 -0.950265 0.182225 255 255 255 1.000000
-0.072857 -0.153904 -0.694691 0.154561 0.239639 0.958480 255 255 255 1.000000
0.019366 0.754154 0.210052 -0.495876 -0.828013 -0.261727 128 0 0 1.000000
0.676673 -0.221669 -0.147863 -0.900192 0.399982 0.172245 255 255 255 1.000000
-0.491402 0.288497 -0.001158 0.714071 -0.699330 -0.032252 255 255 255 1.000000
0.601936 0.246634 -0.233968 -0.377872 0.825036 0.420153 128 0 0 1.000000
0.124599 0.868124 -0.067828 -0.638759 -0.668327 0.381217 255 255 255 1.000000
-0.407997 -0.684191 0.073840 0.903860 0.377641 -0.201057 255 255 255 1.000000
0.577917 0.215274 0.208683 0.743394 0.587267 0.320128 128 0 0 1.000000
-0.304271 0.036923 -0.608222 -0.484239 0.270353 -0.832119 128 0 0 1.000000
0.325404 0.033029 0.218399 -0.000000 1.000000 0.000000 255 255 255 1.000000
0.755862 0.231654 -0.226136 0.395803 -0.917748 0.032838 128 0 0 1.000000
-0.548163 0.033029 -0.117007 -0.000000 1.000000 0.000000 255 255 255 1.000000
0.407121 -0.452542 -0.426080 0.624721 -0.393190 -0.674630 209 105 29 1.000000
0.659050 0.541029 -0.237461 0.580751 -0.811823 -0.060594 128 0 0 1.000000
-0.651081 0.541353 0.292994 -0.688067 -0.723059 -0.061224 128 0 0 1.000000
0.051151 0.367436 -0.461061 -0.021166 -0.817191 0.575979 255 255 255 1.000000
-0.885196 0.203027 0.254091 -0.501818 -0.858197 -0.108062 128 0 0 1.000000
-0.380559 0.155021 -0.494413 -0.574131 0.499936 -0.648412 128 0 0 1.000000
0.274600 0.457611 0.076062 0.284380 0.951168 0.120031 128 0 0 1.000000
0.504627 -0.441484 0.264745 0.781170 -0.395764 0.482851 209 105 29 1.000000
-0.707392 0.447957 0.451636 0.492806 0.163030 0.854730 255 255 255 1.000000
0.368139 0.222788 0.496721 -0.997561 -0.066697 -0.020576 255 255 255 1.000000
-0.351919 -0.297346 0.458168 0.564892 0.427711 -0.705663 255 255 255 1.000000
-0.257940 0.444350 -0.055680 -0.359558 0.932354 -0.037853 128 0 0 1.000000
0.261230 0.546690 0.464442 0.456581 0.491295 0.741729 128 0 0 1.000000
-0.500904 0.244276 -0.209381 -0.732520 0.632285 -0.252252 128 0 0 1.000000
-0.031525 -0.458158 -0.569073 -0.111949 -0.389786 -0.914076 209 105 29 1.000000
-0.239981 0.436220 -0.176144 -0.342676 0.920344 -0.188521 128 0 0 1.000000
-0.024476 -0.557111 -0.528996 -0.108716 -0.372869 -0.921493 209 105 29 1.000000
-0.049131 0.474991 0.150518 0.090959 -0.977533 -0.190149 255 255 255 1.000000
-0.129561 0.577270 -0.362378 -0.297071 0.615287 -0.730186 255 255 255 1.000000
-0.097746 0.033029 -0.245359 0.000000 -1.000000 -0.000000 255 255 255 1.000000
-0.396275 0.209646 0.379710 -0.593683 0.581040 0.556717 128 0 0 1.000000
0.536553 0.278736 -0.106588 -0.507297 -0.463357 -0.726602 128 0 0 1.000000
-0.175638 0.276948 -0.524570 -0.285331 0.679065 -0.676356 128 0 0 1.000000
-0.660374 0.333681 0.466864 0.465916 -0.236278 0.852699 128 0 0 1.000000
-0.239792 -0.089410 0.606721 0.397779 0.078556 -0.914112 255 255 255 1.000000
-0.308314 0.099770 0.531910 -0.482393 0.397129 0.780760 128 0 0 1.000000
0.379466 0.194032 -0.521438 -0.473808 -0.556194 0.682754 255 255 255 1.000000
0.217652 0.033029 0.542704 -0.000000 1.000000 0.000000 255 255 255 1.000000
-0.552688 0.365830 0.322512 -0.872104 -0.222049 -0.436039 255 255 255 1.000000
-0.340610 -0.662715 0.247990 -0.749853 -0.375877 0.544460 209 105 29 1.000000
0.312454 0.181884 0.470966 0.040444 0.117071 0.992300 255 255 255 1.000000
0.458241 -0.509364 0.289287 -0.743271 0.377791 -0.552107 255 255 255 1.000000
0.341343 -0.805073 0.151106 -0.000000 1.000000 0.000000 255 255 255 1.000000
-0.880421 0.333127 0.089008 -0.424431 -0.317695 -0.847896 128 0 0 1.000000
